ply
format ascii 1.0
comment Created by hansol
element vertex 699
property double x
property double y
property double z
property uchar red
property uchar green
property uchar blue
end_header
0.39256222148370973 -1.8972217782191025 -1.8036223070573625 200 114 0
0.3750833703705158 -1.951300507996253 -1.8275992128377212 200 112 0
0.34900210404439386 -1.9781492424951361 -1.8393259813824478 200 111 0
0.3190777649897574 -1.9917795962899585 -1.8263046377020866 200 112 0
0.28911544389877053 -2.0025326921217474 -1.8175772657806997 200 113 0
0.2592184464998758 -2.0146649748881114 -1.8106120639036063 200 113 0
0.22547172181561423 -2.022796888812152 -1.8072617019328945 200 113 0
0.19487941203261425 -2.0343185434474993 -1.7943785103905658 200 114 0
0.16364192474648517 -2.0326309372752784 -1.7830396050836026 200 115 0
0.135785096221206 -2.033492744708002 -1.7618472308529236 200 116 0
0.1016459142513574 -2.0418834716258405 -1.7544275409424042 200 117 0
0.07397949473997759 -2.039637162664102 -1.7381300063682092 200 118 0
0.03984626264444291 -2.049651304945794 -1.7392056702665377 200 118 0
0.012313102475548853 -2.061676207432276 -1.730021260914181 200 119 0
-0.022353442347240182 -2.0692693187787476 -1.729888045503572 200 119 0
-0.05661635813536107 -2.340916340673542 -1.9364904425168443 200 104 0
-0.08194152591034581 -2.088674588553416 -1.7162707273220925 200 120 0
-0.1135871513333783 -2.09318257398828 -1.7089604533176792 200 120 0
-0.16902641732413934 -2.4392309914263945 -1.979302877457509 200 101 0
-0.20801789762368258 -2.4667734216069492 -1.989975849281033 200 101 0
-0.24760448550192213 -2.495184835105957 -1.9945828279157995 200 100 0
-0.2856446238087823 -2.4961556380328647 -1.9919773767806408 200 101 0
-0.3241300047218862 -2.502514132593487 -1.9871246478791553 200 101 0
-0.3655117505712775 -2.526992004167489 -1.997168778813623 200 100 0
-0.4050529154183761 -2.5346670223990153 -1.9944411701712297 200 100 0
-0.44790150070594925 -2.559205776690329 -2.005500049419149 200 100 0
-0.48280396356739796 -2.558602352043743 -1.9981578383300544 200 100 0
-0.5286875727421798 -2.5712719192929705 -2.000257547788141 200 100 0
-0.5665708368883309 -2.563488137266725 -1.9878065944352923 200 101 0
-0.6049744428715569 -2.5580579687433596 -1.9778305063935195 200 102 0
-0.650249991331491 -2.5796692467701505 -1.9893469119391212 200 101 0
-0.68943363727664 -2.571619852245692 -1.9857367789632516 200 101 0
-0.7346329171627319 -2.576989513402504 -1.9776257696628312 200 102 0
-0.7697467365823665 -2.5710926601911996 -1.9709237768700594 200 102 0
-0.809785975084192 -2.567577114781156 -1.9655406366211359 200 102 0
-0.8488969494030463 -2.56059178546741 -1.9581366748751288 200 103 0
-0.8924015173123513 -2.565861564701386 -1.9607355896924927 200 103 0
-0.9354364205829608 -2.560653324888519 -1.947440202620945 200 104 0
-0.8015611144474756 -2.1049194062534116 -1.6077199267856037 200 127 0
-1.0402306953350713 -2.6165708678967396 -1.9990165666539172 200 100 0
-1.082536263951409 -2.6117589671269403 -1.9965078374156573 200 100 0
-1.1301549714515489 -2.605387762345013 -1.998934405708752 200 100 0
-1.1658167861143791 -2.607271513687476 -1.9758645917996898 200 102 0
-1.2138235140334401 -2.60218797442557 -1.996761623863615 200 100 0
-1.2593073755305961 -2.600681434774234 -1.9995234979251617 200 100 0
-1.2808446170665537 -2.5387780915920737 -1.961533359029039 200 103 0
-1.2879824948179197 -2.4746724924324948 -1.9121647387818217 200 106 0
-1.2921346619815668 -2.3941379441499993 -1.8622677384541133 200 109 0
-1.3432967535026292 -2.4012908739814827 -1.8653851105234394 200 109 0
-1.2947490650707698 -2.2445239118786593 -1.7521761519616936 200 117 0
-1.3814977878280648 -2.3138480425940147 -1.8203641141293714 200 112 0
-1.359933706476292 -2.2078488742770412 -1.7386396010511376 200 118 0
-1.4375697380219525 -2.254316171319698 -1.7818026961619495 200 115 0
-1.4652104737329084 -2.2289883764615337 -1.7798016673952084 200 115 0
-1.4954485340882893 -2.2081964618644485 -1.7670265158459044 200 116 0
-1.5288025278090402 -2.1889378449998 -1.7624399512302031 200 116 0
-1.5898089912234552 -2.207950975863983 -1.7894837550551683 200 114 0
-1.6245916084608896 -2.1891909036624737 -1.7867527929291012 200 115 0
-1.6652408890302042 -2.177862622508777 -1.7907798130929127 200 114 0
-1.7167758524931653 -2.1796518221871213 -1.8064316334510775 200 113 0
-1.7621052330570022 -2.172297011532547 -1.8153974775017991 200 113 0
-1.8292783417552525 -2.185279784424158 -1.8395534817374188 200 111 0
-1.8550721744977008 -2.161982683883906 -1.8425393868220328 200 111 0
-1.8919348068830317 -2.1341601291845205 -1.8402545664944232 200 111 0
-1.923880479025085 -2.111659169977891 -1.8330774921629736 200 111 0
0.0 0.0 0.0 200 238 0
0.0 0.0 0.0 200 238 0
0.0 0.0 0.0 200 238 0
0.0 0.0 0.0 200 238 0
-2.1773647573793236 -2.0664799705149655 -1.8991756329478713 200 107 0
-2.2041778760614092 -2.0334212855118454 -1.903922951778451 200 107 0
0.0 0.0 0.0 200 238 0
-2.1776745335847214 -1.896437744310923 -1.8269728836875128 200 112 0
-2.2040947213472974 -1.8678071159853233 -1.8204730365494477 200 112 0
-2.397797475906364 -1.9700299085369055 -1.9469929825264245 200 104 0
-2.2956720893208242 -1.8351871051283102 -1.8471333567136217 200 111 0
-2.3202762985323417 -1.80106364081003 -1.843964552322299 200 111 0
-2.347529209628089 -1.7689948294709856 -1.843524340291671 200 111 0
-2.3166578490167544 -1.6943329700231735 -1.7985490283229757 200 114 0
-2.4469400729375557 -1.7364564353263288 -1.8788878007124665 200 108 0
-2.4982456329637968 -1.7196834755910373 -1.8981111429935942 200 107 0
-2.5645441653809224 -1.7053830566407753 -1.9245848237823235 200 105 0
-2.589290961799475 -1.675294078580658 -1.928637038277585 200 105 0
-2.6413411600019963 -1.6558795251913463 -1.9492313265827093 200 103 0
-2.6635449994937366 -1.617213425781819 -1.948274562566309 200 104 0
-2.671412981001323 -1.5701571959446685 -1.9375913462236563 200 104 0
-2.6907645648813068 -1.5268106821846719 -1.9386686661587862 200 104 0
-2.712464398720347 -1.4949904298853824 -1.9341646130114634 200 105 0
-2.7331344785053884 -1.4490860292578265 -1.9399942917995572 200 104 0
-2.7707046050801267 -1.422001672196431 -1.9507081472271373 200 103 0
-2.8332832249127344 -1.403293827972338 -1.9819463059838016 200 101 0
-2.881005727971158 -1.3724739695732908 -2.005551297833369 200 100 0
-2.903087165928383 -1.3358618035368721 -2.007079928371843 200 99 0
-2.9488809853058306 -1.306145837469349 -2.027969434129422 200 98 0
-2.966177148905745 -1.2668989143437621 -2.0276430411056037 200 98 0
-3.003460918885753 -1.2265345267447711 -2.038249622452787 200 97 0
-3.0442988957156825 -1.19490557920179 -2.065210715722904 200 95 0
-3.0596160624678146 -1.1470431051519971 -2.0697082101620543 200 95 0
-2.8564029940172126 -1.0311543951714208 -1.9219260545317982 200 105 0
-2.92566782102164 -1.00564260872111 -1.964292214657252 200 102 0
-2.8719527935707867 -0.94140772661663 -1.9229652840775524 200 105 0
-2.877272866482885 -0.9010668743051431 -1.920380022243338 200 105 0
-2.8731069645130436 -0.8514349752312023 -1.915279565342795 200 106 0
-2.8855502735551384 -0.8103191311214664 -1.9203475426402423 200 105 0
-2.8045869742727634 -0.7411196619006295 -1.8652761164191871 200 109 0
-2.8121730891077 -0.7033775544607076 -1.8671733028241735 200 109 0
-2.8262512720933466 -0.6639691925601419 -1.875304534821417 200 109 0
-2.831789044019776 -0.6192520373376059 -1.8794812620568437 200 108 0
-2.840393400221572 -0.5785198047155931 -1.8851686947139696 200 108 0
-2.8706021453240864 -0.5451667587666391 -1.9048833372142848 200 107 0
-2.8706701433564654 -0.5025649956868636 -1.9062505378758676 200 106 0
-2.8777666180066794 -0.4612843858737641 -1.9129209203820907 200 106 0
-2.8943992883133274 -0.4213600946719614 -1.9265809587010194 200 105 0
-2.90686141615047 -0.38056006329505204 -1.9381274740121077 200 104 0
-2.914639075565172 -0.338990560991843 -1.9472110873623938 200 104 0
-2.9157326969327677 -0.29322721892360915 -1.9529944183533894 200 103 0
0.0 0.0 0.0 200 238 0
-1.68479642956961 -0.12457923636184019 -1.1516640850425937 200 158 0
0.0 0.0 0.0 200 238 0
-2.9473961956547132 -0.12811079295706887 -1.991067033167903 200 101 0
-2.938116088893437 -0.08254540135041175 -2.0002045382663827 200 100 0
-2.885608618715492 -0.04622612832841841 -1.9725730746044958 200 102 0
-2.409536190279965 -0.000883028478817266 -1.654709511664153 200 124 0
-2.4056106854307067 0.03682489367995102 -1.6600030594390685 200 123 0
-2.823225194407288 0.08071617823975735 -1.9583579882734155 200 103 0
-2.8068704152131647 0.12439192230792814 -1.9575074998235935 200 103 0
-2.7937054701636796 0.16444681025633068 -1.9595805552653485 200 103 0
-2.786890363617622 0.20125458548305566 -1.9670564564844812 200 102 0
-2.760511175732522 0.2397052541682095 -1.9609764403939185 200 103 0
-2.708222240666233 0.2751668490896425 -1.9297797129006329 200 105 0
-2.690609252421182 0.31272575364124444 -1.9377963525084474 200 104 0
-2.6803945429475635 0.3545755797294985 -1.944049192380792 200 104 0
-2.6753712597830424 0.39040544982942077 -1.9488957429966298 200 104 0
-2.6768191991222663 0.43048860909456416 -1.9726269142060942 200 102 0
-2.664858120326195 0.4720651912664574 -1.9792988818584478 200 101 0
-2.7232710820491595 0.52006132145881 -2.040959119041172 200 97 0
-2.6811458900838887 0.5528337103550027 -2.0273317081280484 200 98 0
-2.6546230887103555 0.588071777120287 -2.025831762965642 200 98 0
-2.64777748695031 0.6308130114199008 -2.0316401192687796 200 98 0
-2.63184028721636 0.6647036284491585 -2.0476683884143525 200 97 0
-2.6346351209036416 0.7100974967310052 -2.062258813737358 200 96 0
-2.624014172873368 0.7488403458450267 -2.0755033888178547 200 95 0
-2.606338119347718 0.7823361348563166 -2.0924581404972193 200 94 0
-2.561175158647188 0.8102388098831151 -2.0791403241935704 200 95 0
-2.5379266263914064 0.8444159008585289 -2.083923394808651 200 94 0
-2.5395322579502264 0.8869856152961352 -2.109867796590099 200 92 0
-2.521845573297961 0.9230538976373358 -2.1206087914780514 200 92 0
-2.506539098013279 0.9592051563455357 -2.126738749393285 200 91 0
-2.4801679930541383 0.9916672109223016 -2.1313419971959893 200 91 0
-2.44794788878799 1.0222594346935765 -2.1385960422572547 200 90 0
-2.374313738365886 1.0381095811182093 -2.1075812699389753 200 93 0
-2.3554956235877005 1.0675464979235139 -2.114456216626495 200 92 0
-2.332901557979637 1.0998164285042151 -2.1238934423290674 200 91 0
-2.3077350193559436 1.1344069619169093 -2.129569291005266 200 91 0
-2.306193184527972 1.1771361248209995 -2.159828414314001 200 89 0
-2.240967878528448 1.1831257279885221 -2.132825665443694 200 91 0
-2.2158538903737863 1.2154558015585963 -2.13266179713824 200 91 0
-2.1830477247279236 1.2385615176503466 -2.1440310162299205 200 90 0
-2.146400175375278 1.2597693078808812 -2.1355121020659897 200 91 0
-2.111278503434172 1.2880832620555118 -2.1407441675616434 200 90 0
-2.0748163586057693 1.306009312305338 -2.142208963717973 200 90 0
-2.0507877093538025 1.333408297113956 -2.1475493229146205 200 90 0
-1.990039656076952 1.3432945742923657 -2.1262154791831 200 91 0
-1.9510598977885654 1.3611633750200487 -2.1230006574999694 200 92 0
-1.9231713916240034 1.3825978889453532 -2.134564856340244 200 91 0
0.0 0.0 0.0 200 238 0
-1.893409051364484 1.4523106720268404 -2.18456286614233 200 87 0
-1.8637938195900632 1.4724167300372442 -2.1965383245380243 200 86 0
-1.797537612141963 1.4700263986194377 -2.159866803832342 200 89 0
-1.727556875544334 1.458543852982592 -2.119872062339186 200 92 0
-1.6983292801145664 1.4801928573805383 -2.1293395152641055 200 91 0
-1.6743640838358176 1.5101411111799339 -2.143431766836742 200 90 0
-1.633538027634233 1.5208251498844652 -2.138873550669079 200 90 0
-1.6059673167646291 1.5405314239662342 -2.144630567080583 200 90 0
-1.5525500623615751 1.5403466315002874 -2.130194723185368 200 91 0
-1.5150892994015686 1.5519636645121149 -2.1298585020777767 200 91 0
-1.4785492125961495 1.5639015757495152 -2.1308500762135965 200 91 0
-1.4484738260028354 1.5752435512454026 -2.1367527090528 200 91 0
-1.4068677960257334 1.583833512631163 -2.137870084633799 200 90 0
-1.3756995335750277 1.600267160754603 -2.1474432349964117 200 90 0
-1.204353122728217 1.4479757193089189 -1.9325636139766815 200 105 0
-1.108420022261235 1.377826582917229 -1.8297508359492651 200 112 0
-1.0785291760759737 1.38665483966392 -1.8330238356304889 200 111 0
-1.0545654513636606 1.399359972501489 -1.8399315248537893 200 111 0
-1.0305666658016235 1.4155610899404893 -1.854224699971667 200 110 0
-1.0070882427212946 1.4398681078839308 -1.874939269222148 200 109 0
-0.9891973651880529 1.4624013930117123 -1.9053599393349319 200 107 0
-1.0078677826386446 1.5451979043720339 -2.0078493118367566 200 99 0
-0.9791427295069098 1.5531055782363505 -2.0114795892836916 200 99 0
-0.9449526167035085 1.5650179782854152 -2.0176418338814806 200 99 0
-0.9127067464558105 1.5677596348951937 -2.025219329398013 200 98 0
-0.881203015105262 1.5748984480431785 -2.031877428517917 200 98 0
-0.8547954539606998 1.589012756296004 -2.039118199667861 200 97 0
-0.8203580020288437 1.5923415624099335 -2.051298122440796 200 96 0
-0.7800977101976455 1.580903512325193 -2.0360544902487896 200 97 0
-0.750901728933714 1.5909863166310336 -2.0492022286190243 200 97 0
-0.7267083531814911 1.5983832414639998 -2.056638914059364 200 96 0
-0.6811243117757807 1.5850237080893672 -2.043833328992998 200 97 0
-0.6447629916814518 1.5767463879244916 -2.0352882652649114 200 98 0
-0.6119378173444003 1.5714703023060332 -2.022704982609663 200 98 0
-0.5772816714860686 1.5692898221043703 -2.0318320024071586 200 98 0
-0.5349142141773132 1.5371289864586888 -1.978751543893157 200 101 0
-0.49958398141913746 1.5257685542874262 -1.9839785795862463 200 101 0
-0.46908691373798767 1.5293939967872192 -1.9867012759725569 200 101 0
-0.4407828202320741 1.5331439069712487 -2.0046226268066496 200 100 0
-0.4089747517531088 1.5277995223130152 -2.0040901357096206 200 100 0
-0.38046870092140805 1.5344239635330836 -2.0199038758699874 200 99 0
-0.352605922282695 1.5445674103587286 -2.0410788858907196 200 97 0
-0.31876662100898473 1.5464225028363567 -2.045235371308606 200 97 0
-0.29097964694109046 1.5388281794326515 -2.0510570541186874 200 96 0
-0.2599882098337422 1.5335451071952924 -2.05376902911326 200 96 0
-0.22680163530935946 1.51217128165495 -2.0354352539835365 200 98 0
-0.19664618408495432 1.5112694975104721 -2.037739910827501 200 97 0
-0.16596503821175396 1.4972295659817083 -2.03774925907031 200 97 0
-0.14026778729717942 1.5057795838975623 -2.053901933531404 200 96 0
-0.10665752034542951 1.490361124581939 -2.0535374483287665 200 96 0
-0.07990420741975772 1.4795640908758227 -2.0520654542746484 200 96 0
-0.046864169019306116 1.4639450678421444 -2.044724829409275 200 97 0
-0.017622349020040354 1.4569487524829954 -2.0498077459735726 200 97 0
0.011578360609764079 1.458778720287567 -2.0680375303175134 200 95 0
0.04059055893627296 1.4444049667581191 -2.063959047202661 200 96 0
0.0693240408595567 1.4354156613723885 -2.060442298742135 200 96 0
0.09790161926159043 1.4209273161732126 -2.0649341599912456 200 96 0
0.12562389525676823 1.4061144059396915 -2.0540493359092875 200 96 0
0.15375575208596395 1.3921362661758483 -2.0603134409837853 200 96 0
0.1823382041647845 1.3860869563336742 -2.0712356067776576 200 95 0
0.21014010113555504 1.3779822828240726 -2.071958929640666 200 95 0
0.23702231330577236 1.3617419186435276 -2.068845325297236 200 95 0
0.2643793736747673 1.3458788672264295 -2.0746999859084783 200 95 0
0.2924127090349329 1.337235124928062 -2.084427191881137 200 94 0
0.3179025260404385 1.3177448387719888 -2.0778237013343777 200 95 0
0.34461488012261665 1.3043856473453195 -2.0813944430111286 200 94 0
0.36990229452122886 1.2864027201074075 -2.07813135874713 200 95 0
0.39566551490435276 1.274512605540492 -2.07714554825459 200 95 0
0.421730979473805 1.2567283958308297 -2.0834378032628025 200 94 0
0.4488534604455168 1.2456850910869945 -2.0934011141894593 200 94 0
0.4737015202510039 1.232090871145246 -2.091477275743735 200 94 0
0.49898213164314825 1.212660800039066 -2.0969475092022383 200 93 0
0.520418384123649 1.1919082301641857 -2.083729628894548 200 94 0
0.542612195150275 1.1773638366254702 -2.0915140190495385 200 94 0
0.5712179048101054 1.1586778351895284 -2.0989113700832775 200 93 0
0.592705383690699 1.136239251289972 -2.0925570797404944 200 94 0
0.6165803968409561 1.1187832467626595 -2.0958823705052367 200 93 0
0.6397790173387629 1.1002358132458225 -2.0978102045286056 200 93 0
0.6549375940169581 1.0740525955788682 -2.086974367325477 200 94 0
0.6797499835513436 1.0586162270521877 -2.0961464008231245 200 93 0
0.7053447630164488 1.0392109736411108 -2.0967007720581314 200 93 0
0.7231370788178552 1.0172034326332058 -2.084777681643298 200 94 0
0.7446342336547208 0.9971405094518861 -2.0865523986901167 200 94 0
0.7690995607431672 0.9772725257235579 -2.098942678143109 200 93 0
0.7835847487153315 0.9486311978877284 -2.0834005740555086 200 94 0
0.8038921634251353 0.9274938611322489 -2.0846000424891216 200 94 0
0.8223291621057178 0.9079284698744138 -2.0919336229292775 200 94 0
0.8433436375496394 0.8841309607714618 -2.0864621643370085 200 94 0
0.8584486911870021 0.8611229877959519 -2.0871447708505264 200 94 0
0.8843550467170996 0.8423849068618503 -2.095092797476367 200 93 0
0.8980870207970019 0.8152112196200212 -2.084622174515469 200 94 0
0.9145389102431718 0.7908312831285829 -2.0815418091588818 200 94 0
0.9328198635652373 0.7717485303287948 -2.082095953137962 200 94 0
0.9530150829980979 0.7505101831624938 -2.088927973039647 200 94 0
0.973072871198556 0.7252993643326878 -2.097256214542228 200 93 0
0.9863727168251918 0.7009645845599868 -2.099547666688121 200 93 0
1.0085389557781732 0.6783533829572468 -2.1031435216143315 200 93 0
1.0191419776039434 0.6521816752703784 -2.1013480749097817 200 93 0
1.0371450867163037 0.626834832781376 -2.097712783369586 200 93 0
1.052682968769534 0.6018905818067014 -2.0986645122065006 200 93 0
1.0621250583406958 0.5736032739206977 -2.0883237427640933 200 94 0
1.0775099712159832 0.544989411057866 -2.0914549490163377 200 94 0
1.0919487028650139 0.5267685666833958 -2.0905984304657212 200 94 0
1.1140132582347482 0.5009558059776913 -2.107632259416818 200 93 0
1.1274631276460747 0.47462877576402573 -2.1079606877300328 200 93 0
1.143231429680466 0.44914773681962095 -2.113265411324515 200 92 0
1.1486310696205129 0.4206986897017301 -2.108679235537185 200 92 0
1.163716464135258 0.39376569263953254 -2.105607135816329 200 93 0
1.181193179896763 0.37207809246752505 -2.115237994853322 200 92 0
1.1874741504741855 0.33942669848016777 -2.10678595692929 200 93 0
1.198355801984233 0.31551717635213117 -2.1060800657329017 200 93 0
1.2068461583356762 0.28360531754668183 -2.1029854526291105 200 93 0
1.2157865058422508 0.25546987962909956 -2.1008604910403226 200 93 0
1.22735309429405 0.22777802304221495 -2.103947364870567 200 93 0
1.2337776996749719 0.19905924538932998 -2.0989139678914346 200 93 0
1.239652453426862 0.17050587044509882 -2.1019238765608335 200 93 0
1.2215819430202604 0.13882577167411256 -2.0490615221622637 200 97 0
1.1711483512385559 0.10897358467371661 -1.951551756227483 200 103 0
1.176999118062511 0.07866242431245225 -1.9494879479189808 200 103 0
1.1799495283548158 0.05495535311240158 -1.9430183297384354 200 104 0
1.1853034451863724 0.024361447261821764 -1.9489319389646795 200 104 0
1.235292211381748 -0.0026334278969524856 -2.012994152390191 200 99 0
1.2368097508380704 -0.027263351339354168 -2.0060071260854526 200 100 0
1.2388666447432777 -0.05582050079326759 -2.0083778698824886 200 99 0
1.246948675363461 -0.0874292800682161 -2.0054218339282297 200 100 0
1.2557169840287548 -0.11283440886962771 -2.0122545594921064 200 99 0
1.2255069766871067 -0.14113429740546 -1.957047091969709 200 103 0
1.2227559068750629 -0.1690782675795072 -1.954306214909643 200 103 0
1.218131556817054 -0.19512014483925957 -1.934160916098856 200 105 0
1.221606716350283 -0.21983894821987177 -1.9354917611329325 200 104 0
1.2372321377810211 -0.2530435871874868 -1.9483276983672673 200 104 0
1.213285136174855 -0.2590447487054598 -1.994534082562965 200 100 0
1.2435675083649438 -0.290415771969617 -2.0414853738222805 200 97 0
1.2391816671168536 -0.32263791683266707 -2.0391949344050886 200 97 0
1.2484161429282674 -0.3526583414433237 -2.0443333065541323 200 97 0
1.2490116526604809 -0.3818461130563713 -2.044060646718212 200 97 0
1.247514577445837 -0.41056705356434187 -2.041067486289375 200 97 0
1.2504980721017975 -0.4374466348747178 -2.0468791496584435 200 97 0
1.2505572935983873 -0.4707587357635215 -2.04708617994705 200 97 0
1.2431914333967296 -0.49954650835331876 -2.0447487635210817 200 97 0
1.2446656118047656 -0.5285545376344276 -2.0413425914178944 200 97 0
1.2442629373459275 -0.5588665717719669 -2.04372657361574 200 97 0
1.252915168973862 -0.5938149977310133 -2.0617527707814327 200 96 0
1.2455395127723916 -0.6180096873420035 -2.0552472621254485 200 96 0
1.2417812821952021 -0.65133156374616 -2.0532733381743458 200 96 0
1.2293086521060588 -0.6765425383005366 -2.0386810544386416 200 97 0
1.2214493773540354 -0.7042593069434199 -2.0324313536119765 200 98 0
1.2148786973093593 -0.7328671712078266 -2.029053047652957 200 98 0
1.206201116070227 -0.760359248808122 -2.022884744700717 200 98 0
1.2179524741568069 -0.8014212879992595 -2.0518547950176496 200 96 0
1.208650033277158 -0.8293448438390436 -2.0462513621392455 200 97 0
1.1888617543412383 -0.8499358276802453 -2.023544422020473 200 98 0
1.1815136122544585 -0.8758342849717303 -2.02421448945646 200 98 0
1.1742956595279876 -0.909236416437399 -2.0228467794269056 200 98 0
1.1639909969674611 -0.933484272211968 -2.0201143612458154 200 99 0
1.1519143627577613 -0.9635320741576944 -2.0117926068414085 200 99 0
1.139607049012024 -0.9900105464362182 -2.0054368356513166 200 100 0
1.1291760003954836 -1.0183551037135266 -2.003156622152015 200 100 0
1.1210323756382163 -1.049177295991195 -2.0057889755274707 200 100 0
1.1113493299552637 -1.0790446220043928 -2.0065600864492903 200 100 0
1.0984735250092121 -1.106178318815762 -2.0024102306559888 200 100 0
1.0833209870081337 -1.1277465522353312 -1.996852784515936 200 100 0
1.0759098263858822 -1.164827027674393 -2.0025095583006687 200 100 0
1.054614658899788 -1.1880671209234395 -1.9939219637223449 200 100 0
1.0399237729756 -1.2099222598989512 -1.9807903047524258 200 101 0
1.023734508830541 -1.234707441685082 -1.9744324827344617 200 102 0
1.0092181257915842 -1.266698347240425 -1.9811419135619985 200 101 0
1.0011480237853685 -1.3012132901326 -1.9812597553205755 200 101 0
0.9864552648364903 -1.325896577217687 -1.9829306510815734 200 101 0
0.9722036595407625 -1.355219212761723 -1.9842336908078753 200 101 0
0.9548440415985708 -1.384182571844992 -1.9777581914946756 200 102 0
0.9396120610974393 -1.4098539174950053 -1.9815174780869855 200 101 0
0.9194326778603198 -1.432004810402136 -1.9733725988438529 200 102 0
0.9018069359005242 -1.4585145377100213 -1.9716106597526373 200 102 0
0.8860012941066615 -1.4921312936809132 -1.9723590746259783 200 102 0
0.8602307569032313 -1.50238603866199 -1.9569269469531119 200 103 0
0.8264753532494171 -1.4978797713123801 -1.9233526694718324 200 105 0
0.8051852556685279 -1.5187855529300673 -1.916377444102522 200 106 0
0.8001423448426409 -1.57534859335235 -1.9471177487282305 200 104 0
0.7788356966648042 -1.5949195671171392 -1.945634984273136 200 104 0
0.7543411220608124 -1.6150312245018978 -1.931477285771679 200 105 0
0.7343664298109266 -1.6504475562161605 -1.9437905676658833 200 104 0
0.7083843256820983 -1.655842573189397 -1.919048790401493 200 106 0
0.6843690384930926 -1.6744664544121044 -1.9114512816707088 200 106 0
0.6563745182812144 -1.6928650417693307 -1.9050525798797329 200 107 0
0.6202454615906093 -1.6795322470991951 -1.862924968518641 200 109 0
0.5913045156960802 -1.6838997300510965 -1.8416028124574704 200 111 0
0.5619816736138851 -1.6755806161592848 -1.8066132644463253 200 113 0
0.5317151831005998 -1.6733770224109215 -1.780193378520281 200 115 0
0.5071534682201513 -1.6885683980755184 -1.7730009263091064 200 116 0
0.49395416238939527 -1.7443930213592789 -1.8083934202742602 200 113 0
0.4712551221726604 -1.7734629979218766 -1.8094728555101294 200 113 0
0.45298254096558593 -1.8306549120759414 -1.852458274961298 200 110 0
0.4297201905486785 -1.8422521961954947 -1.8480683330027823 200 110 0
0.4022766880661242 -1.8553765580214074 -1.8399537315332644 200 111 0
0.3826563541950829 -1.911408547398538 -1.8678895897579004 200 109 0
0.35444514936648985 -1.9252843512090474 -1.8610722750823303 200 110 0
0.33031433753166967 -1.9426770104192277 -1.8576070848297344 200 110 0
0.2954620909348549 -1.9606250901497426 -1.8630243956254886 200 109 0
0.2696867016496428 -1.974140373262414 -1.8502820540686955 200 110 0
0.24039726390721008 -1.9833425556325068 -1.8474162152917906 200 110 0
0.21857298820518326 -2.0024875935493256 -1.8406718818160077 200 111 0
0.18154710640183794 -2.0116018776873337 -1.8393558040362699 200 111 0
0.14839801331171534 -1.9844309748301123 -1.792269886423344 200 114 0
0.1150389922156435 -1.991890476612645 -1.7838876981048606 200 115 0
0.08865221114530589 -1.9992782579959143 -1.7756104281524898 200 115 0
0.05865757526180416 -2.0080278420757502 -1.7692306475734048 200 116 0
0.02817883440103079 -1.991296816660364 -1.7472073234880001 200 117 0
-0.0018187930013387264 -1.9935789482714572 -1.7302184136694672 200 119 0
-0.031629997647081826 -1.9866311265214731 -1.7119730139184046 200 120 0
-0.06154967732788144 -1.9915349806261633 -1.7045258778215073 200 120 0
-0.09537060334497607 -2.00188831401903 -1.708103192495015 200 120 0
-0.11716492698145332 -1.923262862300899 -1.6309284786217897 200 125 0
-0.1457226687175245 -1.9200198199712937 -1.6184949659295342 200 126 0
-0.17436630788789637 -1.9214880313574432 -1.6048589645273004 200 127 0
-0.20324602125411872 -1.9197294865271781 -1.6004335392019462 200 128 0
-0.23386515722801804 -1.9373849021290692 -1.6012299395268164 200 127 0
-0.27841883921954147 -2.0024793831421754 -1.6462232868168811 200 124 0
-0.3021281696744784 -2.003659182617777 -1.640597540227526 200 125 0
-0.4075493444009489 -2.4327191438995963 -1.9828616035373652 200 101 0
-0.4536751522180564 -2.457998804049788 -2.001945677472227 200 100 0
-0.48346090922022966 -2.460138655051332 -1.9977830180422926 200 100 0
-0.522487480813877 -2.4702660199119464 -1.992168432452728 200 101 0
-0.5622845611138139 -2.475134527222636 -1.997124741843489 200 100 0
-0.6015743417828903 -2.4829863461715083 -1.9908190088590032 200 101 0
-0.6380635406226655 -2.475113488727196 -1.9796406583137138 200 101 0
-0.6758743890905815 -2.4720941185742307 -1.972977690974262 200 102 0
-0.7196114179062009 -2.4751137377132935 -1.9706345558225546 200 102 0
-0.7666545581910654 -2.514072364089834 -1.9997119033812387 200 100 0
-0.804084700145835 -2.5057467092023753 -1.99065348926247 200 101 0
-0.8530112677279937 -2.5192146018528807 -1.9982148175159529 200 100 0
-0.8869603745695934 -2.511208063059472 -1.9920042665537787 200 101 0
-0.9261882421167336 -2.5061059494974685 -1.9874210223448137 200 101 0
-0.9627167819488123 -2.4934134462143973 -1.9774632294916037 200 102 0
-1.0097016163659067 -2.5032041932001796 -1.9931155267703664 200 100 0
-1.049325267478846 -2.50027084460111 -1.9850749196612454 200 101 0
-1.1067923328851919 -2.5306072678042217 -2.0184842303082298 200 99 0
-1.1150938766880298 -2.4525945765884316 -1.9589723579116358 200 103 0
-1.1511870782585358 -2.441485164305435 -1.9464934917248082 200 104 0
-1.1881537007858751 -2.4286695222422674 -1.9403024364877617 200 104 0
-1.224911276047855 -2.415207518417582 -1.9342397521481147 200 105 0
-1.2095184233698137 -2.305480263807609 -1.8449034518702054 200 111 0
-1.22015212550267 -2.2436626723190205 -1.8075457984442846 200 113 0
-1.2468248114626121 -2.209690188738385 -1.7845113530920846 200 115 0
-1.2705658731386762 -2.1846500207048143 -1.7730681005110345 200 116 0
-1.3236409989475137 -2.1964008257775665 -1.788169345567934 200 115 0
-1.3568634112387579 -2.1864240031335895 -1.7903750450011329 200 114 0
-1.3979758333857453 -2.1823341809901597 -1.7960376754821819 200 114 0
-1.430706900714741 -2.1770805172673726 -1.7760001676751183 200 115 0
-1.4746970122032168 -2.163308284685556 -1.8005199908942262 200 114 0
-1.5077902309945292 -2.145338794618359 -1.7967258459828843 200 114 0
-1.5568246767351603 -2.1491962365949537 -1.8119580631224745 200 113 0
-1.5912487184173305 -2.1319850927601256 -1.8101944427005074 200 113 0
-1.6413641926831382 -2.13489246910934 -1.8263001320478112 200 112 0
-1.6890632560290806 -2.133263865087918 -1.8394384901492622 200 111 0
-1.735529332331415 -2.1288683482072446 -1.8510878781458828 200 110 0
-1.7910410160370338 -2.1293007621964954 -1.8651381806671732 200 109 0
-1.8163784674103878 -2.099484265798905 -1.865463259029972 200 109 0
-1.8628301455145444 -2.095429625599827 -1.8735252715458177 200 109 0
-1.8939894032408389 -2.070352966859222 -1.870160726522891 200 109 0
0.0 0.0 0.0 200 238 0
0.0 0.0 0.0 200 238 0
0.0 0.0 0.0 200 238 0
-2.1508796450086405 -2.093689663694069 -1.9769810279383357 200 102 0
-2.1655475893113407 -2.053011648804556 -1.9668014689593452 200 102 0
-2.197093506028313 -2.0243988118371097 -1.9654721535551478 200 102 0
-2.16982526269618 -1.942986247170984 -1.9128773961417047 200 106 0
-2.203003550290976 -1.9136491771075865 -1.9181982677400198 200 106 0
-2.231001026155187 -1.8863342165400068 -1.9128878834905358 200 106 0
-2.258544010275823 -1.8552508592638215 -1.9111473106090109 200 106 0
-2.297472123740643 -1.833202767348054 -1.919531115773354 200 106 0
-2.302484020478996 -1.7776023476960878 -1.8963804968687679 200 107 0
-2.3235914047125825 -1.7450856854799648 -1.8982728819320813 200 107 0
-2.430906995316593 -1.7722302580755214 -1.9634736699233897 200 102 0
-2.4691648514081175 -1.7503860580071224 -1.969623515930142 200 102 0
-2.520843510931979 -1.733779620821143 -1.9898910296338916 200 101 0
-2.5481787585762667 -1.6998051537346064 -1.9913587581543384 200 101 0
-2.5693239344566803 -1.6616978489596177 -1.9886491064516698 200 101 0
-1.8620466582056208 -1.1696100866720203 -1.4259688383062055 200 140 0
-1.8784476611911316 -1.1405836610909639 -1.4279691650094901 200 139 0
-2.6386964868331324 -1.5513704990411603 -1.9891406876033848 200 101 0
-2.6637636014276915 -1.5094269536885476 -1.9872653967669964 200 101 0
-2.689691895924895 -1.4775683138357596 -1.9887853058951572 200 101 0
-2.7062368649297026 -1.4362038101220307 -1.9966267194161293 200 100 0
-2.7309727048934613 -1.3999788040162842 -2.0011359582577155 200 100 0
-2.7215045543265277 -1.352574480309806 -1.986438452606731 200 101 0
-2.6879092973789076 -1.2862107417993172 -1.9428014249387604 200 104 0
-2.673911911244177 -1.2331574336793059 -1.9217648853769749 200 105 0
-2.689928232272302 -1.195656927419592 -1.9137695334438647 200 106 0
-2.701989757005296 -1.1542048131839293 -1.9222085766798334 200 105 0
-2.7215431512967014 -1.1137459289720169 -1.9292645959868433 200 105 0
-2.7099845101160427 -1.0676317240376387 -1.9111023381178542 200 106 0
-2.730095845582719 -1.0309817093717193 -1.9179196539148733 200 106 0
-2.781385984391847 -1.0034950329136638 -1.939849139687466 200 104 0
-2.8203112914242556 -0.9724979415216489 -1.9608651083644182 200 103 0
-2.0851699779569897 -0.6873691344005542 -1.4511929837551862 200 138 0
-2.0929639287277677 -0.6545493329419985 -1.4542375506737584 200 138 0
-2.130255292236017 -0.6356457699387 -1.4759151076737034 200 136 0
-2.1380713378955187 -0.6049804519252189 -1.4787644899908918 200 136 0
-2.7481981277290104 -0.7355338945510748 -1.8981035115907907 200 107 0
-2.7552531295739326 -0.6955358985381326 -1.900970072309873 200 107 0
-2.78642696867136 -0.6613351320089694 -1.92109678086025 200 105 0
-2.7736987294529003 -0.6167040307832758 -1.9115848546813254 200 106 0
-2.7856817968045937 -0.5744758813325481 -1.9207458964471908 200 105 0
-2.796998294701712 -0.5353290703530882 -1.9290079019720505 200 105 0
-2.8015333929520088 -0.4982324568765022 -1.9323620848820258 200 105 0
-2.8373450471205723 -0.4629311360719216 -1.9588816418649493 200 103 0
-2.8556297594639366 -0.4207060748850897 -1.974713236249436 200 102 0
-2.8469203652679322 -0.38138007611907565 -1.971056222273254 200 102 0
-2.207497744104736 -0.2663386177859072 -1.5307898942860818 200 132 0
-2.1924506540587427 -0.23012486109020772 -1.5241845976867772 200 133 0
-1.654216913661655 -0.14973816230823198 -1.1529199865143558 200 158 0
-1.7524225928602062 -0.13123010688053532 -1.22507736697779 200 153 0
-2.8448467871702046 -0.17556622542198835 -1.9946850548441077 200 100 0
-2.808183419202454 -0.13293699922553842 -1.975829972025256 200 102 0
-2.791287659831146 -0.09204208600362263 -1.971391311860348 200 102 0
-2.7868587706985983 -0.05187558642940427 -1.9763432712241324 200 102 0
-2.7929812064692796 -0.015346739858806422 -1.9894087734513268 200 101 0
-2.732188210945541 0.027649592154541394 -1.9553288956142114 200 103 0
-2.719775394922209 0.06665232514948038 -1.9562489817832267 200 103 0
-2.7144925806696834 0.10563364955170207 -1.9628866018116358 200 103 0
-2.7109587132345307 0.1446319544248614 -1.9714158523500365 200 102 0
-2.6716824637057246 0.18119773839598824 -1.9544388536681032 200 103 0
-2.654823676722545 0.2219915683531992 -1.9539000560656818 200 103 0
-2.6231045682337366 0.25416168364319547 -1.9436381923287465 200 104 0
-2.6202682956742076 0.2921814143756127 -1.9549068826361145 200 103 0
-2.6365475371694345 0.3326920924117566 -1.9812039637282366 200 101 0
-2.6262303085090184 0.36664449086484446 -1.9888997646907913 200 101 0
-2.5681626671578677 0.4034155282002383 -1.9587805968570111 200 103 0
-2.6158311334160476 0.44641047331484757 -2.0120579541271 200 99 0
-2.6334663542983847 0.48891315361936083 -2.042697025747173 200 97 0
-2.571206418832436 0.5161686881350965 -2.0118338716563486 200 99 0
-2.5555576505991917 0.551879303985734 -2.0176869376333295 200 99 0
-2.542229831752726 0.5879443259167495 -2.0259568608854446 200 98 0
-2.5297243428629734 0.627669462892261 -2.034405749716373 200 98 0
-1.8635710510480015 0.4887949399037823 -1.5144711302696743 200 133 0
-2.546909669893553 0.7080593280449843 -2.091135452659917 200 94 0
-2.513477647804474 0.7382078567135737 -2.0784165305043265 200 95 0
-2.4780537871954103 0.7715955088090384 -2.0773842106245546 200 95 0
-2.4619510520517753 0.8028694371309791 -2.0884913033628223 200 94 0
-2.443831329402998 0.8376362243721905 -2.1043474021767112 200 93 0
-2.4151997401379495 0.8672408814130529 -2.0972899439141672 200 93 0
-2.404643638610542 0.9038123386302934 -2.1137041225842124 200 92 0
-2.3676984142165693 0.930183258767179 -2.1074190101699313 200 93 0
-2.347807227579546 0.9628288407642318 -2.1167149301495116 200 92 0
-2.3408566621767384 1.0008896787536692 -2.138435170424195 200 90 0
-2.297328336941462 1.024045445720718 -2.1344073831826083 200 91 0
-2.273987749963382 1.0535770135416909 -2.134992852342379 200 91 0
-2.2442726247657845 1.0845996986294035 -2.135350256857152 200 91 0
-2.209429470662568 1.105187939197367 -2.1349142941159016 200 91 0
-2.1837474852529293 1.1336650707991591 -2.1418092440507968 200 90 0
-2.159182990966832 1.1662581345908187 -2.1482907217181446 200 90 0
-2.1281640370260138 1.187569059974047 -2.1528587504296457 200 89 0
-2.0945308492295056 1.214456931034977 -2.1509451048985486 200 90 0
-2.0579267802590797 1.23314298379417 -2.1576012858291738 200 89 0
-2.0331777847807295 1.2590851584644576 -2.1605501774336684 200 89 0
-1.9524442148837375 1.2506440439064974 -2.1107371492462597 200 92 0
-1.9243076452647527 1.2744948487361054 -2.1172513731063565 200 92 0
-1.8691246673798085 1.2759071431084616 -2.0961412237626367 200 93 0
-1.8412618759129786 1.3024719347724139 -2.1010738500680124 200 93 0
-1.8171399956989305 1.3315585571442754 -2.110720363981725 200 92 0
-1.8300347147471394 1.3849473813859534 -2.167114658621584 200 88 0
-1.800582028339638 1.4032473213395615 -2.1772235701401126 200 88 0
-1.7748603286501137 1.431907524170553 -2.187489807063742 200 87 0
-1.7078751157654772 1.4223684893273854 -2.1489581265156357 200 90 0
-1.6776262031046645 1.4384192495649608 -2.15862850558812 200 89 0
-1.6451784047061986 1.453360255387555 -2.156025416071942 200 89 0
-1.5991895182282119 1.4608422273248156 -2.1501713586720688 200 90 0
-1.5579762313177745 1.472749137455389 -2.140464970695216 200 90 0
-1.510460631308354 1.4738442576164794 -2.1241761404268003 200 91 0
-1.4807247304235855 1.4915194807486458 -2.132757933113669 200 91 0
-1.4511598164638173 1.5054203934444625 -2.1446833603313613 200 90 0
-1.3999723433344613 1.499699428446239 -2.1217306667474647 200 92 0
-1.3697626315709128 1.5192182569393566 -2.1275545071593513 200 91 0
-1.32943903214025 1.526761678940709 -2.1279443238816524 200 91 0
-1.301280879287867 1.5369356473085172 -2.1352538254812106 200 91 0
-1.2647985753415778 1.5478661807433594 -2.131446283706179 200 91 0
-1.2295641763892557 1.552223028328715 -2.1350689933738076 200 91 0
-1.1548765537103007 1.5117703769344801 -2.0627669968063764 200 96 0
-1.1246813131938944 1.5200238416023826 -2.0733587906372573 200 95 0
-1.0886179403474885 1.523425111736478 -2.070535551224439 200 95 0
-1.0583523112259428 1.5344131727368142 -2.0787710337250824 200 95 0
-1.0028894359348512 1.5072970787246824 -2.036236328562653 200 97 0
-0.967965738015512 1.5079664543623186 -2.0227468434151676 200 98 0
-0.9373346504393208 1.5121961512207724 -2.0315921843024687 200 98 0
-0.9027603994633236 1.5181377347457357 -2.0378939421623263 200 97 0
-0.8720074173707854 1.5249744217289143 -2.044186431596418 200 97 0
-0.8402096205124472 1.5295573454974594 -2.048147153022237 200 97 0
-0.8048603532120099 1.5304600389502294 -2.040435502779713 200 97 0
-0.7738681639305822 1.531757864585958 -2.0488134783658993 200 97 0
-0.7443661892407599 1.5392900412961175 -2.0587742919226932 200 96 0
-0.7137180090273457 1.5442149157361402 -2.0659267503007137 200 95 0
-0.6764676747827675 1.5374198930859724 -2.0505955347941027 200 96 0
-0.6417666655465856 1.5241401416242355 -2.0496295605993953 200 97 0
-0.6076177272649164 1.5215881451637339 -2.041292841316651 200 97 0
-0.5725851257249581 1.511743385293414 -2.031254344197236 200 98 0
-0.5330682663556952 1.4962487355401954 -2.015299963975313 200 99 0
-0.5051221236837771 1.4940838320156768 -2.0157116616903674 200 99 0
-0.4786554806288217 1.5054603611011568 -2.036153835548082 200 97 0
-0.44572589818360575 1.499636875059689 -2.026583752685694 200 98 0
-0.4143899838505185 1.4905865642200316 -2.028056526788908 200 98 0
-0.38474186524507187 1.4902766408324635 -2.0346180651210317 200 98 0
-0.3551122615629866 1.489557629713059 -2.0412732765240507 200 97 0
-0.3258475400796989 1.4900036130974281 -2.0501879678655364 200 97 0
-0.29393529548147995 1.4769342122207927 -2.041102551280058 200 97 0
-0.26734197751946676 1.4726220744294802 -2.0441464582947564 200 97 0
-0.23366133702205966 1.4663660273771886 -2.0386665895469775 200 97 0
-0.20408085696113715 1.4567287566573122 -2.04355394921437 200 97 0
-0.17770301691291734 1.4524277239064451 -2.041079445932468 200 97 0
-0.145433007692007 1.4435920774473698 -2.0486579300129253 200 97 0
-0.11612991752507346 1.4336714719828338 -2.047340802767872 200 97 0
-0.08733833514704134 1.4272177593885886 -2.051565736821406 200 96 0
-0.05842536397128248 1.4179835012740338 -2.044756774523428 200 97 0
-0.02992711296039858 1.3999686831310514 -2.0486664697217467 200 97 0
-0.0017057256332591397 1.393116351265921 -2.0464162045721763 200 97 0
0.026277058237173738 1.3826794003954659 -2.0471632670435533 200 97 0
0.05107956567049775 1.3832661294381936 -2.0572753469382734 200 96 0
0.0821012123625347 1.3736557495220167 -2.0604190260075033 200 96 0
0.10618454878550491 1.3569660152734457 -2.0616120476443003 200 96 0
0.1367449375492514 1.3496586890661517 -2.061494381530759 200 96 0
0.16343758649024012 1.3314739860453109 -2.061218491525548 200 96 0
0.19085663025205607 1.323951704447112 -2.070138092249021 200 95 0
0.21802815317209956 1.318361376009952 -2.074829490987033 200 95 0
0.24400839373265096 1.299269325599983 -2.074835695505304 200 95 0
0.26953604342039683 1.2829373301356866 -2.0716574736769577 200 95 0
0.29902833347832164 1.2707543471238436 -2.075116383493473 200 95 0
0.3238411256858174 1.2534873708435499 -2.0713955745946415 200 95 0
0.34522412101376526 1.2367506429874608 -2.0697590785742133 200 95 0
0.3711907029795405 1.2251415153332115 -2.0766333281127403 200 95 0
0.395971085361897 1.2098703724862907 -2.0779562534705116 200 95 0
0.4206036121204295 1.1945849944422864 -2.0798488653083833 200 94 0
0.44934680513595393 1.185389625018913 -2.083665012810752 200 94 0
0.469321075133127 1.163505069999548 -2.084582135709992 200 94 0
0.4932394033025768 1.1509178078423286 -2.0846472916589813 200 94 0
0.5171272525452074 1.1312063662361596 -2.0896417878817957 200 94 0
0.5384555148403515 1.1100007628264215 -2.0836569331496904 200 94 0
0.5613740880358572 1.0961860097392329 -2.083295316399931 200 94 0
0.5822212235924406 1.0714711315990542 -2.080340842493932 200 94 0
0.6022274240383851 1.0551903072057973 -2.086669285084492 200 94 0
0.6272624378725499 1.0399347543910984 -2.08405948826892 200 94 0
0.6484147125800497 1.0203048174995393 -2.083702819477135 200 94 0
0.6678926521350957 1.0033148437015096 -2.090879788422128 200 94 0
0.6885166505792631 0.9795216516835631 -2.0924719342820866 200 94 0
0.7123554929093935 0.959453440555264 -2.091486597405893 200 94 0
0.7293276323165369 0.9349236556113381 -2.0827122996030645 200 94 0
0.7490124496096131 0.914214051128792 -2.0828490245451037 200 94 0
0.7660103519182171 0.8942855448745137 -2.0871546337017346 200 94 0
0.792506680550278 0.8813109183294364 -2.095078670722535 200 93 0
0.8101624417852882 0.8513634031426837 -2.08349696033131 200 94 0
0.8249134857211761 0.8291939400754439 -2.0844690429021724 200 94 0
0.8438188844512069 0.8080018228950874 -2.0867139225207025 200 94 0
0.861908727749041 0.7860454482510492 -2.0877064325028645 200 94 0
0.8816859214622237 0.7655709859173104 -2.0934706617043637 200 94 0
0.8987661083127686 0.7463602079762489 -2.092228384402136 200 94 0
0.9179349731287527 0.7251806673067649 -2.0978828339236752 200 93 0
0.9355876328142303 0.6990306516208475 -2.1019355578655587 200 93 0
0.9475365190816926 0.6760714582102286 -2.0916265485023957 200 94 0
0.9666416502268019 0.6488142139671903 -2.09105928318662 200 94 0
0.9753539227173686 0.6245854221106308 -2.0951882435539595 200 93 0
0.9965183981427834 0.6021961848304055 -2.0992167794533856 200 93 0
1.005243557565923 0.5778362446170572 -2.1049847753318933 200 93 0
1.0276664017433144 0.5541072309255027 -2.1037354737143215 200 93 0
1.041465618935321 0.5290145891559411 -2.1034088829887163 200 93 0
1.0584321087135578 0.5054099135839325 -2.1101288895456727 200 92 0
1.0669778454114802 0.4777932175346615 -2.1008211629453255 200 93 0
1.0804152092535102 0.4524518274607859 -2.101968127598772 200 93 0
1.0923447511744269 0.42643454651012297 -2.1008980275406954 200 93 0
1.1001907300989187 0.40361242803953695 -2.100739778110663 200 93 0
1.1260780943824726 0.37759622121206143 -2.1195106461346946 200 92 0
1.1300753208846743 0.34869867371337965 -2.1056030024859695 200 93 0
1.1372204277976148 0.3210031187681578 -2.0984745855837583 200 93 0
1.1485201852563847 0.29448815391068434 -2.0997685756446867 200 93 0
1.1578954710756575 0.2674025823209281 -2.0982430500374782 200 93 0
1.1668072767000612 0.24016785457129414 -2.0965996615163345 200 93 0
1.178420816415291 0.21703156661434955 -2.1001100181971517 200 93 0
1.1882852565015694 0.1857813804224076 -2.0935115924850627 200 94 0
1.1922661390771825 0.15785457700348285 -2.093655567692317 200 94 0
1.1869889231637032 0.1323476735996574 -2.069832717776833 200 95 0
1.1576773697427922 0.09809606088549737 -2.005812620965418 200 100 0
1.147458421132299 0.07368999720490689 -1.9757795818573773 200 102 0
1.150295738527842 0.04356200410709962 -1.9693499627346223 200 102 0
1.155643827812112 0.020397594223096897 -1.9677529548674748 200 102 0
1.1577404108792708 -0.009993971102821558 -1.969153054376092 200 102 0
1.1939498433940623 -0.03741196155282143 -2.0131807982871446 200 99 0
1.1960250971255133 -0.06482333546569277 -2.007875967838902 200 99 0
1.1974152444164001 -0.09219663688580994 -2.0021290174676953 200 100 0
1.2002271392994825 -0.1197194071475749 -1.9994534472303211 200 100 0
1.1970059730963514 -0.15006814331107787 -1.9871805007937307 200 101 0
1.1944308587036725 -0.173419797624169 -1.9772285521831814 200 102 0
1.1746173906467603 -0.19892417141862767 -1.9546564837882916 200 103 0
1.1819055646362169 -0.22537513246836557 -1.946791012396249 200 104 0
1.1969110296497825 -0.2555487639747505 -1.9676164911724223 200 102 0
1.20475 -0.268756252932231 -2.0693085231569084 200 95 0
1.1895474932097065 -0.29181863345389464 -2.0317727251264115 200 98 0
1.189940272530097 -0.31601766742342363 -2.0304925859719996 200 98 0
1.1963159008011415 -0.35276806760913115 -2.038393741642098 200 97 0
1.1973483285338253 -0.3776398179490438 -2.0396688844164546 200 97 0
1.194801705405139 -0.4050986053858036 -2.034948769545673 200 98 0
1.1959137345853523 -0.4339836221923839 -2.03717740884266 200 97 0
1.1988656109035967 -0.4638804000172139 -2.0432650883995973 200 97 0
1.1957105725572696 -0.4916835574278313 -2.0396728943705353 200 97 0
1.1951844562213352 -0.5207809787158175 -2.0412960828392106 200 97 0
1.1910586239444823 -0.5485266599723649 -2.037505057080114 200 97 0
1.1847053055036394 -0.577388617696846 -2.0389479059715216 200 97 0
1.188580126419268 -0.6074621657794327 -2.0420370124529375 200 97 0
1.1828369969555947 -0.6350381152986415 -2.037694597026507 200 97 0
1.1829315852842435 -0.6660594176721985 -2.044177811900686 200 97 0
1.1722235240790146 -0.6936464674515246 -2.0411692232119796 200 97 0
1.170940261086022 -0.722120768813641 -2.0384075010202927 200 97 0
1.1643774886693858 -0.7501255659842517 -2.0356732397751807 200 98 0
1.1511750676627206 -0.7739035440008192 -2.022044430316679 200 98 0
1.1443694906871138 -0.80489893902055 -2.028870724503685 200 98 0
1.140969408641939 -0.8329772095771817 -2.0255290733209126 200 98 0
1.1314529836850193 -0.8562478420856905 -2.022136461427335 200 98 0
1.1188378066004914 -0.8843196507719024 -2.010941274075417 200 99 0
1.1082366417809602 -0.9105523716782301 -2.005587797690545 200 100 0
1.1094141073291166 -0.947030577176328 -2.022467400071558 200 98 0
1.097861367825507 -0.9732224405360913 -2.017070186749405 200 99 0
1.0786704283324398 -0.9925929696991336 -1.9982993253126433 200 100 0
1.0690448983575755 -1.0208111136376905 -1.9979498906552733 200 100 0
1.0594999080746723 -1.0495209148705087 -1.9986258989713737 200 100 0
1.0451895350751814 -1.0737994237632948 -1.9911297379364663 200 101 0
1.0322426012359933 -1.0962139042569208 -1.988924193705569 200 101 0
1.0184821414202931 -1.1292799009662005 -1.9910927132812528 200 101 0
1.008226411760475 -1.1545350572205086 -1.9849661745927643 200 101 0
1.0001914299584889 -1.18387341078706 -1.995310276791308 200 100 0
0.9842562721723874 -1.2113208169464382 -1.9867419860468867 200 101 0
0.965761675094821 -1.2337458023438885 -1.9872372888301189 200 101 0
0.9569352521530327 -1.266026547319704 -1.9856251697308231 200 101 0
0.9402856802663895 -1.290083787037453 -1.9802645333159599 200 101 0
0.9228811362608695 -1.313386863076794 -1.9741521512363591 200 102 0
0.9061677999865267 -1.3380044316955313 -1.970390049972516 200 102 0
0.8924518442763559 -1.367640394504427 -1.9741949921341369 200 102 0
