ply
format ascii 1.0
comment Created by hansol
element vertex 697
property double x
property double y
property double z
property uchar red
property uchar green
property uchar blue
end_header
-2.3086789860333288 0.4843548575752319 -2.0319107439529414 200 96 0
-2.297743679150669 0.5221700827536241 -2.034478802937062 200 96 0
-2.2863095229150963 0.5491569893865049 -2.0402467930217894 200 96 0
-2.2819740219106475 0.6100459626454546 -2.0441538412714744 200 95 0
-2.273349332588192 0.6522149831276439 -2.0497610879818726 200 95 0
-2.2599172351250814 0.6894859468064322 -2.052871944262731 200 95 0
-2.254812174588675 0.7366388517440691 -2.0617967090447764 200 95 0
-2.2450292715318505 0.778951628271472 -2.068356374220456 200 94 0
-2.2234287344985333 0.8135262847414664 -2.0660563730549555 200 94 0
-2.2076038454275935 0.8536964793538595 -2.0683380944110965 200 94 0
-2.1982516104773877 0.9001505840837686 -2.075793810330694 200 94 0
-2.160505248570767 0.9310893228591208 -2.0584376948928793 200 95 0
-2.135910429310043 0.9635259551917937 -2.0556791533788368 200 95 0
-2.146403090717263 1.0158847411371161 -2.0858946413671413 200 93 0
-2.1415485006502926 1.0619632908333831 -2.1022375884482742 200 92 0
-2.109280447427107 1.0945099335435595 -2.0923208261345043 200 93 0
-2.090160030775672 1.1336464706274516 -2.0959663201926135 200 93 0
-2.0680494952739727 1.1675324483077971 -2.0992944903575266 200 93 0
-2.045158177168707 1.211937116349667 -2.0962506306198274 200 93 0
-2.0255798565529846 1.2510576630945163 -2.1013522356661865 200 92 0
-2.0156726921414765 1.2928956420260314 -2.11959629575663 200 91 0
-2.01580209532698 1.3495909651560334 -2.1450140743698074 200 90 0
-1.9925384967987125 1.387643777516919 -2.1488119614088386 200 90 0
-1.9716702010135325 1.4275735172270048 -2.1559460478748944 200 89 0
-1.9238932372729207 1.4438507386570765 -2.1365741611408984 200 91 0
-1.879214234048208 1.4651094353582566 -2.1181660569876994 200 92 0
-1.889202931903562 1.5333737228431268 -2.1596964759385044 200 89 0
-1.8281445547660466 1.5367180887296832 -2.1259707812315396 200 91 0
-1.8094910751288062 1.582523424649041 -2.1363561640012807 200 91 0
-1.7686175642195598 1.6051507181299787 -2.1238027906613373 200 91 0
-1.7434928630418525 1.638142513987445 -2.1335304053115847 200 91 0
-1.7129873865252854 1.6736886545085896 -2.1317032958117084 200 91 0
-1.6776238208485634 1.7006252607049719 -2.127236171273329 200 91 0
-1.6457343036656384 1.7309265435833012 -2.127706180950965 200 91 0
0.0 0.0 0.0 200 206 0
-1.6141899561786657 1.828114423340761 -2.1740126150842354 200 88 0
-1.5967788666558536 1.8731529917562597 -2.2006403637295717 200 87 0
-1.577799036854914 1.9254705294423713 -2.2202118816790026 200 86 0
-1.5275907244780664 1.9358974793914765 -2.1998065114401095 200 87 0
-1.491557943676786 1.963595951823746 -2.199983408718365 200 87 0
-1.4542115217444533 1.9856775238880167 -2.2023126279326553 200 87 0
-1.4176003135888084 2.016418357743163 -2.1994496146693785 200 87 0
-1.389039572881096 2.0552944590685382 -2.2135861947284696 200 86 0
-1.3610532035495468 2.0961527863795206 -2.2301340393036666 200 85 0
-1.3251867174247287 2.125694693019123 -2.2350442156770427 200 85 0
-1.297183474836512 2.1727489846240533 -2.2508251314631735 200 84 0
-1.260872028737624 2.1927506079180947 -2.2523627835279765 200 84 0
-1.2140148332358767 2.2108405460302105 -2.2494550950646035 200 84 0
-1.1835740359882145 2.2528239360665636 -2.269058629568686 200 83 0
-1.1468989029031766 2.2802865852235894 -2.282405924845279 200 83 0
-1.0996202529780232 2.294559670178708 -2.2673722299679704 200 83 0
-1.0577147043941513 2.31164663811471 -2.2717517282047686 200 83 0
-1.0181132801791108 2.342094856870051 -2.2739870888256575 200 83 0
-0.9763538686695656 2.3641506820235856 -2.276547894471229 200 83 0
-0.9365247907047876 2.3915549658065633 -2.284836957404471 200 83 0
-0.8984860018608622 2.4249216394279984 -2.2993142688840753 200 82 0
-0.8464115927834331 2.42013176752817 -2.278324747133909 200 83 0
-0.8088727068835686 2.456894364564136 -2.297138085843304 200 82 0
-0.7638942044709914 2.472415651587278 -2.296635473940496 200 82 0
-0.7189992163795104 2.4883748908387875 -2.297208510233388 200 82 0
-0.6733756953866613 2.5019689571955266 -2.2962693483327383 200 82 0
-0.6367553562379237 2.5366168347481834 -2.3140613777457206 200 81 0
-0.5862928236305817 2.5477808017716077 -2.3133215343058784 200 81 0
-0.5475234730981681 2.596451311198076 -2.3459996259557054 200 79 0
-0.49402626481389345 2.571890284961217 -2.3213182831736248 200 81 0
-0.44134122623967137 2.5974980059884105 -2.3278899610822448 200 80 0
-0.37942404471980085 2.459627534892796 -2.2018024874828477 200 87 0
-0.3287754956704357 2.4258935284705596 -2.163687385453666 200 89 0
-0.28063057918653167 2.4043952723019024 -2.1298451452060285 200 91 0
-0.23551311537377398 2.3982268019065938 -2.117920918991975 200 92 0
-0.19019734309509778 2.3844236137369634 -2.099961428439371 200 92 0
-0.14513587111668944 2.3640096284037004 -2.07690251714658 200 94 0
-0.10187733665060868 2.3616121304357574 -2.077654341717039 200 94 0
-0.05786495610423339 2.330531335392751 -2.0465335940578977 200 95 0
-0.015170926948628734 2.320830721024814 -2.02771354419774 200 96 0
0.02704866865123942 2.3079505773866904 -2.021049952837544 200 97 0
0.0696430897104862 2.3227760754002804 -2.0320999344529422 200 96 0
0.1109001374628097 2.301770916394428 -2.0053316054836134 200 98 0
0.15217523717959325 2.2902870360760637 -1.9946179582995973 200 98 0
0.1937764426663153 2.286742033901904 -1.9914175379999473 200 98 0
0.23349905646534705 2.265257277362736 -1.9731857231352954 200 99 0
0.2747756066978047 2.262017394833523 -1.9714327991170315 200 99 0
0.3170771187763248 2.2658523365743144 -1.9764419671695967 200 99 0
0.3590628551847396 2.2656466158341138 -1.9785291931599118 200 99 0
0.39896685013475436 2.252538455787662 -1.9699373512097502 200 99 0
0.4393177515985331 2.239561303934679 -1.968950664452721 200 100 0
0.4896393893466935 2.280312382991514 -2.0018605506817293 200 98 0
0.5322296814128185 2.2737121723001668 -2.0078636940184134 200 97 0
0.5754956080148486 2.2724274280880037 -2.0121264570669912 200 97 0
0.6239979871497334 2.2927374837145886 -2.0290654259543177 200 96 0
0.6718922323727338 2.3038440636774244 -2.0456771295430456 200 95 0
0.8348495978819915 2.677585881156374 -2.3946119535215553 200 77 0
0.8334683116451943 2.51667056248209 -2.251726169723883 200 84 0
0.8689659010174388 2.4698771688398367 -2.2271784377801125 200 86 0
0.92080343708895 2.4779014617926456 -2.2369179211341317 200 85 0
0.9664958281426986 2.4604177289729523 -2.2400362548714123 200 85 0
1.0110355419252153 2.4476808122324045 -2.232461301880348 200 85 0
1.055930582229182 2.4279159236807035 -2.2348111694393373 200 85 0
1.0975366656506957 2.4085386275262306 -2.222537600866724 200 86 0
1.1344213324196113 2.375798995401676 -2.2063300691419006 200 87 0
1.186287676496725 2.374229440793582 -2.219764877427561 200 86 0
1.2331999164419563 2.354726716754581 -2.214967280907269 200 86 0
1.267332997669818 2.324794341520745 -2.205473722956218 200 87 0
1.3101367077929214 2.3044978219228165 -2.20348133771233 200 87 0
1.3533372608344607 2.2847089404839065 -2.2026741306216824 200 87 0
1.3940790965893548 2.2606754723534523 -2.198457350314557 200 87 0
1.4304514541278943 2.229848845573049 -2.1882335280494942 200 88 0
1.472268211166371 2.197204722092529 -2.1713594183375697 200 89 0
1.5022598272640484 2.1681988954792524 -2.1694245898466114 200 89 0
1.5418484393703111 2.13929194232404 -2.17034731449111 200 89 0
1.5809908595532798 2.1134872714644515 -2.1674670805727887 200 89 0
1.6018437044028464 2.067759820118176 -2.1371297019530218 200 90 0
1.6258997245597098 2.023798513306831 -2.1164049761833676 200 92 0
1.657443254751443 1.989954597454718 -2.106626952582676 200 92 0
1.6991720974680238 1.9682884754282464 -2.110399457610446 200 92 0
1.7200118950495291 1.9227590368932121 -2.0890909331414016 200 93 0
1.7495593145889812 1.8840944524285137 -2.0827984801855015 200 93 0
1.7661315243837066 1.8395260053750797 -2.055680851719665 200 95 0
1.7934192842601049 1.8033219096269641 -2.045499401394029 200 95 0
1.8254844374127 1.7721282889225238 -2.041521955885992 200 96 0
1.8652388280009755 1.7445613440629946 -2.0496462917583282 200 95 0
1.907132115618412 1.725537948441548 -2.054262992429395 200 95 0
1.9393122301619294 1.690187005935511 -2.0548074651682375 200 95 0
1.9636978115870243 1.655333939950223 -2.04190539986974 200 96 0
1.9902132595580446 1.6189593255791945 -2.0349513614825048 200 96 0
2.028424709695356 1.5919218513696554 -2.040474762458266 200 96 0
2.0655351606232677 1.563516271591591 -2.0452241267639453 200 95 0
2.08721940506134 1.523364407441534 -2.035281436871984 200 96 0
2.115040521786743 1.4878418620943186 -2.0320274664973828 200 96 0
2.152589902233201 1.4588637144525152 -2.0385806374675166 200 96 0
2.1718186640798254 1.4173609494729826 -2.0283464667712887 200 96 0
2.146154452636912 1.3479790913940188 -1.9775304282339907 200 99 0
2.1711790554924786 1.3116465384231222 -1.974643772236762 200 99 0
2.1922176983055848 1.2729385688750472 -1.9687516484072114 200 100 0
2.2175770633589016 1.2367337127843219 -1.967340362450589 200 100 0
2.2476892037868352 1.1994971393865392 -1.972732291970608 200 99 0
2.384935380816548 1.2201352299737582 -2.069361075285391 200 94 0
2.417803544706135 1.1882235259623817 -2.0727353139163647 200 94 0
2.44770440257971 1.147196772743428 -2.078157071108671 200 94 0
2.463477132123148 1.1066948093535127 -2.068185092890939 200 94 0
2.5097535103447854 1.0758245494839755 -2.086284691991874 200 93 0
2.500930529545034 1.0177670762608197 -2.061006284529258 200 95 0
2.5297877910102913 0.9790378343359413 -2.0656792615006965 200 94 0
2.519547793456028 0.9290716614752387 -2.037565109225837 200 96 0
2.480824824869281 0.866617453073017 -1.9893313420196093 200 98 0
2.495305208781956 0.8203712277611079 -1.9861899641492935 200 99 0
2.5363198624949477 0.785844065877678 -2.0031155406612093 200 98 0
2.5834924123594147 0.7521124077283696 -2.0251659614516453 200 97 0
2.6175436782288517 0.7171213158214613 -2.0359994967972526 200 96 0
2.650413621744118 0.6775301295311152 -2.0476408296502533 200 95 0
2.6695987864754587 0.6303726196870886 -2.0503067671930446 200 95 0
2.7050467548515424 0.5936744128073287 -2.0637362199770144 200 94 0
2.7071775639851623 0.5458108041921651 -2.053415243705584 200 95 0
2.633941273631083 0.4843788829572782 -1.9869460372158385 200 99 0
2.643781854958134 0.43967520071420374 -1.9841019079853366 200 99 0
2.7317603386944986 0.4065518084805279 -2.0402197844734595 200 96 0
2.746904760048035 0.35749843411485266 -2.042886369534751 200 96 0
2.7392657124543853 0.3126959461700046 -2.028012663131227 200 96 0
2.7447744038533157 0.26608316147590927 -2.024175353849231 200 97 0
2.7677183339459037 0.22086029939926366 -2.033778464358638 200 96 0
2.7625181097522304 0.16971604992478187 -2.0236076980701796 200 97 0
2.7529920251399984 0.12223780587649241 -2.0105666535407547 200 97 0
2.771863176387534 0.07948781123985924 -2.018751153374558 200 97 0
2.779594890205022 0.02900875623579237 -2.0196798603758426 200 97 0
2.781088091191189 -0.01812076599476317 -2.0165581461674527 200 97 0
2.7776264811104894 -0.0651645902454738 -2.0104763011813644 200 97 0
2.7734205685583166 -0.11206846335494954 -2.0044913193673164 200 98 0
2.7386000814548903 -0.11119680678580622 -2.053190206487433 200 95 0
2.6518418389481018 -0.15260826655414952 -1.986021434472369 200 99 0
2.6517839564599086 -0.19413388297150716 -1.9848118005856976 200 99 0
2.650221539391684 -0.2425335120774455 -1.9824090238050645 200 99 0
2.6563310447061843 -0.2883613327140912 -1.9867031189197601 200 99 0
2.606261113839645 -0.33088034882545536 -1.9490178658104895 200 101 0
2.6012954838390936 -0.3714846617314496 -1.9468238343149096 200 101 0
2.6001675921862146 -0.41952299497982654 -1.946808667853032 200 101 0
2.588986601855693 -0.4591596815181867 -1.941329266837501 200 101 0
2.615544590621055 -0.5094005024529114 -1.9640579707772523 200 100 0
2.626994711075922 -0.55566431673333 -1.96173930864639 200 100 0
2.6243101057002596 -0.603331043068882 -1.9781996389618783 200 99 0
2.5679266483187724 -0.63596653098061 -1.9403473762001497 200 101 0
2.5568201010798774 -0.6823532598774806 -1.9360398264107228 200 101 0
2.5504833111921457 -0.72332060824232 -1.9383382024358669 200 101 0
2.526193062152385 -0.765798692077943 -1.9250567227863362 200 102 0
2.514435685208326 -0.8084829977827234 -1.9231651689980238 200 102 0
2.507294839197463 -0.8527817041646604 -1.9254288988108044 200 102 0
2.4985953015390043 -0.8967662961664823 -1.9271367074463246 200 102 0
2.468581801827775 -0.9295732192978593 -1.914598098204672 200 102 0
2.45383439725227 -0.9745519873292593 -1.911186420748688 200 103 0
2.425270648194422 -1.0071577093597714 -1.9009500891616757 200 103 0
2.424548631168293 -1.0613995908405764 -1.9077614116192338 200 103 0
2.3998768460893616 -1.0920656158578081 -1.903716949618636 200 103 0
2.387500833561392 -1.134965380015146 -1.9063257843062213 200 103 0
2.370707571143463 -1.1759261810730368 -1.9060485090338188 200 103 0
2.3526141504326996 -1.2196395260772743 -1.9032195999447434 200 103 0
2.309357280878568 -1.2432357516654855 -1.8847270107455614 200 104 0
2.2943883289164066 -1.2850131793194957 -1.887681046974668 200 104 0
2.265586057317985 -1.3190047189812892 -1.8798343486040034 200 104 0
2.2440546507737316 -1.3603505398087679 -1.8761918726992666 200 105 0
2.1663485011341077 -1.359914576140755 -1.830431262635643 200 107 0
2.122531943380877 -1.3854109125554375 -1.8084862296130724 200 108 0
2.0983717831796938 -1.420016653493434 -1.8060511657637446 200 108 0
2.080362578590081 -1.4557362661310589 -1.8120650719752955 200 108 0
2.0988685442266473 -1.521375176334848 -1.8484455217528122 200 106 0
2.0780423193268693 -1.5597077643387682 -1.8512336154434876 200 106 0
2.043828931119332 -1.587895004870606 -1.842638641683872 200 106 0
2.0240272695883963 -1.6272414347572932 -1.8476046019025727 200 106 0
1.991745273233754 -1.6565952185704196 -1.8417765902412324 200 106 0
1.9631043406840205 -1.6888048132794826 -1.8398226029244253 200 107 0
1.9249066346682655 -1.7156605895427517 -1.826356818724071 200 107 0
1.8805615506041928 -1.7330543807148475 -1.8102356221979035 200 108 0
1.850569687530723 -1.7599990506188428 -1.8113409876147595 200 108 0
1.8211238802765526 -1.7905880110601184 -1.8105133933042974 200 108 0
1.7874334553573628 -1.8200247436016943 -1.8028015046995127 200 109 0
1.7373763718495185 -1.825720695939068 -1.7850719433565607 200 109 0
1.7082269895890483 -1.8558948232832457 -1.7858956623918392 200 109 0
1.6822258787496682 -1.8897221037406267 -1.790694452858724 200 109 0
1.6647130483560793 -1.936958512815531 -1.8020953987690151 200 109 0
1.4199339025622122 -1.705985322636882 -1.5701194958671072 200 121 0
1.3914980670289467 -1.7294638332031902 -1.5698921679837858 200 121 0
1.3270723989240376 -1.709345083336268 -1.5257336183253385 200 123 0
1.2966865808296757 -1.7286821560391934 -1.52330861104634 200 124 0
1.2574248607461085 -1.7329697384020746 -1.5136403190191101 200 124 0
1.2287244858554425 -1.7566235655701286 -1.5108079119275772 200 124 0
1.302147777585776 -1.926100254922074 -1.6435013882919434 200 117 0
1.2649259500918193 -1.9397186592954179 -1.637004176404414 200 117 0
1.316081960005691 -2.0964021334663117 -1.7444258681140552 200 112 0
1.2755851121383335 -2.105774029725579 -1.740697962721945 200 112 0
1.2421808412272077 -2.1327130570039223 -1.739685584860969 200 112 0
1.1911343625486004 -2.122400334466333 -1.7213299365935446 200 113 0
1.152291070602493 -2.135556723474831 -1.7166200888464525 200 113 0
1.116854520398991 -2.157790296678586 -1.7136205110303966 200 113 0
1.083260389231834 -2.177804783591089 -1.7216600284867702 200 113 0
1.0463813322637756 -2.1973696516605146 -1.7175279215929025 200 113 0
0.9994724117367165 -2.188902840419739 -1.7044590618080533 200 114 0
0.9600100383070188 -2.201433862153904 -1.696126680679218 200 114 0
0.9107254240277245 -2.186815127273564 -1.6737141485800464 200 115 0
0.873814771983089 -2.1975269238048383 -1.677451496591477 200 115 0
0.8455198122920903 -2.233851554279218 -1.6951279274632545 200 114 0
0.8077937330758062 -2.2492784940831854 -1.6912209733971284 200 115 0
0.7724745540000187 -2.2687351445788573 -1.696980691456218 200 114 0
0.7262836746814466 -2.2522857749796765 -1.6826153754543585 200 115 0
0.688546325893401 -2.2635300632850996 -1.6833922002026895 200 115 0
0.6527706671712786 -2.28457919784826 -1.6857951343030289 200 115 0
0.6131479875342344 -2.2893375304721215 -1.6828214720981332 200 115 0
0.5712187255518647 -2.2812100797544383 -1.6770940044033458 200 115 0
0.5320549088416591 -2.288630023718184 -1.6710802130697384 200 116 0
0.49391199094020494 -2.294287265249337 -1.6765758347656692 200 115 0
0.45479374992627963 -2.2980508902006327 -1.675096642309354 200 115 0
0.4184412568967 -2.2990839822432325 -1.671473412028833 200 116 0
0.3737130915900093 -2.291877608559519 -1.6516221458183877 200 117 0
0.33466537585621686 -2.2860660034124303 -1.6570116337083858 200 116 0
0.28601357207700584 -2.210423799820749 -1.600206643460072 200 119 0
0.2501316538708585 -2.1718097761603805 -1.569983662942397 200 121 0
0.20831102158791964 -2.1793135426403403 -1.5752928017195424 200 121 0
0.1742040408746119 -2.211867844697636 -1.598369118738094 200 120 0
0.1376561868594994 -2.224126169430796 -1.6013738997099947 200 119 0
0.09965393295849645 -2.2070110267537415 -1.5895981603642158 200 120 0
0.05944800604973933 -2.090780597893358 -1.506874525648836 200 124 0
0.02449965202030608 -2.0872640857133806 -1.511348012054791 200 124 0
-0.00965100984068923 -1.932514737998505 -1.4010933749852734 200 130 0
-0.041739110185053614 -1.922758489827944 -1.3911270957304822 200 131 0
-0.0783541856016721 -2.0353804481005873 -1.4808517626989377 200 126 0
-0.11292763831611316 -2.045216170295087 -1.4858561219942676 200 126 0
-0.14673223851183048 -2.037321160313818 -1.483880800441486 200 126 0
-0.1819788391216632 -2.044921711986824 -1.4991501939288163 200 125 0
-0.21401527165144532 -2.0204284728725526 -1.4858864894418562 200 126 0
-0.24650841971885143 -2.0078673009476438 -1.4763881131981988 200 126 0
-0.2782558184018942 -1.9873789112120823 -1.4722506487670397 200 126 0
-0.3118270453310247 -1.98642163368863 -1.4722280383873685 200 126 0
-0.3452740465535294 -1.9791690436993727 -1.4787511248478091 200 126 0
-0.37880111710078385 -1.9771936720882883 -1.4789249124743384 200 126 0
-0.40786783647551433 -1.950915835038743 -1.4667025576318697 200 127 0
-0.44034134973748396 -1.940025812357764 -1.471748790757773 200 126 0
-0.46991286213003436 -1.9224495318282913 -1.461490246145332 200 127 0
-0.5023351579826635 -1.9122041846746325 -1.467837969657195 200 127 0
-0.538302214518584 -1.9071321516413857 -1.4724303453882248 200 126 0
-0.5639344633806718 -1.8879762202409012 -1.4630862424397388 200 127 0
-0.5948309360708697 -1.8729354232670525 -1.4669915977143562 200 127 0
-0.6332378089130999 -1.8747407850586193 -1.478261433644512 200 126 0
-0.6819494107365306 -1.9278948796339155 -1.5342289869108294 200 123 0
-0.7172109846770304 -1.9183696236067402 -1.5324225268122167 200 123 0
-0.7490063650627231 -1.9019410989581118 -1.5376806987113858 200 123 0
-0.7837597489618741 -1.8953858446266671 -1.5459339299905661 200 122 0
-0.8118491479947371 -1.875472549319036 -1.5382964888638913 200 123 0
-0.8408343883835085 -1.8528864693171325 -1.5397993873012226 200 123 0
-0.9072045558097214 -1.9122198764761813 -1.604927873123121 200 119 0
-0.9388449550197209 -1.8951168940900784 -1.6070160385535648 200 119 0
-0.9608668043254415 -1.8510702502230918 -1.6033890367232884 200 119 0
-0.9916659522508849 -1.84155774150278 -1.5959005400893649 200 120 0
-1.0214499182698022 -1.8246761864355927 -1.5938680526070779 200 120 0
-1.049067853074307 -1.801416994317797 -1.5923352951652805 200 120 0
-1.075222191044405 -1.7733199215785354 -1.5924477340303405 200 120 0
-1.110765840672695 -1.763378243744055 -1.6037513855597487 200 119 0
-1.145592266509045 -1.7516339340771736 -1.6141172602707625 200 119 0
-1.27498591804994 -1.878618586342308 -1.754774448703758 200 111 0
-1.3086190190614864 -1.8620349924372677 -1.7576738348993246 200 111 0
-1.328831297919323 -1.8206793108641688 -1.7497989823580369 200 111 0
-1.3591044854130065 -1.7967224570810294 -1.7527757329307574 200 111 0
-1.4099283346913416 -1.79898362054539 -1.7822689426806213 200 110 0
-1.4392527045140815 -1.7760204316847268 -1.781534821098735 200 110 0
-1.427991898869719 -1.6986010040924029 -1.7381677725866205 200 112 0
-1.4558614611364606 -1.6755902852024567 -1.7378692160553277 200 112 0
-1.5412493231766664 -1.7103592227733393 -1.8115678328126845 200 108 0
-1.5163256608437146 -1.6286149458878572 -1.7502848506164834 200 111 0
-1.5424681658212653 -1.5944483346432823 -1.7580736121053757 200 111 0
-1.564066883251483 -1.5649764312100782 -1.7529242409393961 200 111 0
-1.5884625561270918 -1.5354679110824365 -1.7543460923712642 200 111 0
-1.6152980306637432 -1.5114001333652183 -1.7563732715449285 200 111 0
-1.72672433980683 -1.5573964348599094 -1.8550430073193214 200 106 0
-1.7518235940412625 -1.525917117933554 -1.857669562801122 200 106 0
-1.7763683307840565 -1.497248365667522 -1.8576888988453908 200 106 0
-1.6648375236319701 -1.3546503278360675 -1.720345604580837 200 113 0
-1.682742829248729 -1.3240505163716567 -1.7251425711250445 200 113 0
-1.7094069687067408 -1.2920589693491231 -1.7294000101368427 200 112 0
-1.73566168385327 -1.2681529518195562 -1.7352882671173044 200 112 0
-1.7462352314597869 -1.2364557036798633 -1.75524814748403 200 111 0
-1.7730972260275424 -1.2002199620528335 -1.7401813353048377 200 112 0
-1.7914287063092553 -1.1737100064561927 -1.7379020746163327 200 112 0
-1.8102970949186405 -1.1384925693072174 -1.7428816763513755 200 112 0
-1.8336097381772432 -1.1069199912401848 -1.7443923730211652 200 112 0
-1.847747883248097 -1.0708962419697068 -1.7519447162759834 200 111 0
-1.8878079783117916 -1.0535417772784479 -1.7745084870327659 200 110 0
-1.9148174295073144 -1.0219898496653046 -1.7887788345226163 200 109 0
-1.946071376474584 -0.9952565266782119 -1.8055643588005217 200 108 0
-1.982910395968855 -0.9706054366724363 -1.8278659381531648 200 107 0
-2.0211275067453287 -0.9456963410030911 -1.8517456958477796 200 106 0
-2.035532437605733 -0.9124197242715324 -1.8526624172296269 200 106 0
-2.0576363379926734 -0.8759766536435675 -1.864304120266733 200 105 0
-2.103953976718676 -0.8555669344790204 -1.8951882477674458 200 104 0
-2.091560562473183 -0.8046276184161637 -1.8766666750354986 200 105 0
-2.102826778775792 -0.7699365962171333 -1.8772281657457095 200 105 0
-2.126013316700524 -0.736150296975729 -1.8903756445412068 200 104 0
-2.1406567891741104 -0.6991297153978071 -1.8964522039879024 200 103 0
-2.161167503915725 -0.6637806878428227 -1.9082642554074063 200 103 0
-2.1829277057400756 -0.6250559247113597 -1.9227940301799347 200 102 0
-2.169043328197753 -0.579686895690205 -1.9053798134140785 200 103 0
-2.1846200774179034 -0.5435629504036543 -1.9212513100297588 200 102 0
-2.19666206636154 -0.507616790797646 -1.9201278394702124 200 102 0
-2.2057423197239663 -0.46523740006253006 -1.9255391636011439 200 102 0
-2.2183214810248013 -0.42681457080010377 -1.9336949317244054 200 101 0
-2.2376405771390835 -0.38934197055794634 -1.9482903370654805 200 101 0
-2.2314960143865368 -0.3492967595601776 -1.9270127948557478 200 102 0
-2.193351938991334 -0.30482397116834953 -1.9065565893316971 200 103 0
-2.184808600501794 -0.263972288890856 -1.8987505286032482 200 103 0
-2.1875900058896773 -0.22140799752948453 -1.9017515281344148 200 103 0
-2.2457905655258097 -0.19018169940261176 -1.9527355343229658 200 100 0
-2.246848658656976 -0.14640040935285084 -1.9552898596455373 200 100 0
0.0 0.0 0.0 200 206 0
-1.6672986810442378 -0.048698446039550966 -1.454190489427529 200 127 0
-2.3531812414400917 -0.02645627353495549 -2.0556235551591424 200 95 0
-2.253283173484246 0.01516722612851076 -1.972033533017208 200 99 0
-2.241634971587577 0.055425116861994 -1.9660919486576403 200 100 0
-2.2591802696609 0.09311567471187855 -1.9865371932832903 200 99 0
-2.2626133495998126 0.1376133317939919 -1.9949003887726506 200 98 0
-2.2540916173399457 0.17794932201505229 -1.9934925079949941 200 98 0
-2.251145716014407 0.2186687463615049 -1.997607745438195 200 98 0
-2.2466624221238107 0.25928170766861464 -2.0009670279855234 200 98 0
-2.2634208919077476 0.29924480520101593 -2.024455574379379 200 97 0
-2.2513739110151394 0.3427414192319466 -2.021805114827655 200 97 0
-2.2518363020454886 0.3846592092875268 -2.03153414234179 200 96 0
-2.2499840989324675 0.4264489128151349 -2.0398468372183833 200 96 0
-2.241229683543632 0.4670543411681787 -2.042544334402283 200 96 0
-2.229653898985228 0.5070403887905057 -2.0432757486142545 200 96 0
-2.2233934951623398 0.5447012156831662 -2.0504585319637836 200 95 0
-2.204294413629968 0.5827088038293435 -2.0455117203231787 200 95 0
-2.1982494710824034 0.6205401147351337 -2.0543679414580147 200 95 0
-2.1857479347737274 0.6638215577791221 -2.055672764585863 200 95 0
-2.1736809496012595 0.7072677428502442 -2.0578663608854892 200 95 0
-2.1583789998642433 0.7424781248644675 -2.060074371726121 200 95 0
-2.1465200778607834 0.7860988711840214 -2.063597896893613 200 94 0
-2.151231552670838 0.8326716206696624 -2.0851501214360497 200 93 0
-2.112322474277888 0.8586978927054879 -2.066520501646112 200 94 0
-2.1032628054895457 0.900180811330639 -2.0761388291625287 200 94 0
-2.090702282105465 0.9440734852247896 -2.0813926760932255 200 93 0
-2.08126661258304 0.9860598358223042 -2.0920863384490636 200 93 0
-2.050726724417843 1.0179837007563286 -2.082161659610731 200 93 0
-2.029464569800048 1.054210321352429 -2.082144567094301 200 93 0
-2.0292812831739258 1.1018175821518328 -2.104582138910495 200 92 0
-2.0031609449641015 1.1320279805774613 -2.10289592936984 200 92 0
-1.9884574652553177 1.176096846962988 -2.1098807562120925 200 92 0
-1.9656717260087329 1.2081939382119669 -2.113093884151319 200 92 0
-1.944375932120273 1.244925178938396 -2.1165098495959382 200 92 0
-1.9176933555480347 1.2818624154340117 -2.1124426103410716 200 92 0
-1.903181587617963 1.3197171105569363 -2.126999492866705 200 91 0
-1.905776996581443 1.3779195767500056 -2.1572545907495715 200 89 0
-1.857064929432635 1.3917219269060168 -2.134881920865969 200 91 0
-1.828890507965911 1.4276983379472894 -2.131458966458125 200 91 0
-1.795436414739039 1.451867607813248 -2.1273402854295935 200 91 0
-1.7957267675731172 1.5114742117043238 -2.1591219797811787 200 89 0
-1.7670830749842819 1.5363325637823237 -2.1652012145678574 200 89 0
0.0 0.0 0.0 200 206 0
-1.6794681836415648 1.5765034981014132 -2.1275896762791713 200 91 0
-1.6605151688771551 1.6211452264433335 -2.1393473814948485 200 90 0
-1.6506953651841534 1.671853858586326 -2.1775860595828505 200 88 0
-1.6786554406466243 1.7644142101888696 -2.246976494418906 200 85 0
-1.6439521610045607 1.7930660968431096 -2.2452357169527324 200 85 0
-1.5698246373455802 1.7731496283092818 -2.1922056047755816 200 88 0
-1.533295629039933 1.805727094824122 -2.1926451110439804 200 87 0
-1.5120316597912211 1.8445406539505431 -2.2031317812860647 200 87 0
-1.477543549550992 1.8680781686236698 -2.20654917350416 200 87 0
-1.4313873796854664 1.88862971785337 -2.1943495729072593 200 87 0
-1.4071657721797384 1.9248734569367119 -2.2034423578542532 200 87 0
-1.3700304233265732 1.9486162373074802 -2.2014094686952834 200 87 0
-1.3472866732392963 1.9935275935449999 -2.223692434642541 200 86 0
-1.3249720585622466 2.040759896131133 -2.2486395221049036 200 84 0
-1.2821638117588927 2.0531165262112947 -2.2435259413730813 200 85 0
-1.2445108041152257 2.0773658447825754 -2.2443188043081688 200 85 0
-1.2088724910768684 2.109150095819683 -2.2459357211686686 200 85 0
-1.1616978065143122 2.116489768363539 -2.2300955487943313 200 85 0
-1.1209758574742443 2.1348157090499997 -2.2266915873899618 200 86 0
-1.105603142965219 2.2034257656733076 -2.2759445567571337 200 83 0
-1.0662681155198876 2.226632551256048 -2.278468792306063 200 83 0
-1.023489408977624 2.2386520466299418 -2.2782059704579405 200 83 0
-0.9844928652321754 2.267006304515276 -2.2792921321311432 200 83 0
-0.9382428542657181 2.274439014929898 -2.267968684480461 200 83 0
-0.897276928520224 2.294262545662918 -2.2697452665692723 200 83 0
-0.8625628541983227 2.331325728111657 -2.2890824170400452 200 82 0
-0.8195874280837848 2.3432331453181203 -2.292269636061507 200 82 0
-0.776415189600258 2.36259192866631 -2.2874230133402955 200 82 0
-0.7425276055876072 2.4081547028340755 -2.3163954956264394 200 81 0
-0.6991973361232066 2.421316836712223 -2.322804042835324 200 80 0
-0.6567166907468835 2.4463238086930086 -2.3249606988326055 200 80 0
-0.60937078807727 2.449059433869502 -2.314730088371619 200 81 0
-0.565206653536666 2.464138606240127 -2.316889079786696 200 81 0
-0.5211320732700386 2.480411456322456 -2.320818805842796 200 81 0
-0.481260477539999 2.5199268835848803 -2.3470366985081776 200 79 0
-0.43413792242708055 2.5198621304706403 -2.3451957845200604 200 79 0
-0.3862310160444469 2.517660867464115 -2.333915475908481 200 80 0
-0.3200258844561179 2.380614307961558 -2.1911665021186297 200 88 0
-0.27350694285025096 2.361878472993361 -2.1666855496410315 200 89 0
-0.2266843129549024 2.3307023501404176 -2.1316182438021345 200 91 0
-0.1822485655822071 2.3129242598485154 -2.109599125082162 200 92 0
-0.13955187424553156 2.3106502382293765 -2.1024212615375357 200 92 0
-0.09675495809296797 2.3011809614721463 -2.0893632404736513 200 93 0
-0.054134584894123455 2.2771098131228737 -2.070990728056949 200 94 0
-0.01239307723656717 2.2727606728206946 -2.056661463565706 200 95 0
0.028920255873257927 2.2567929295396545 -2.0397111810205018 200 96 0
0.07011124279181541 2.255898640565044 -2.0370149305125316 200 96 0
0.1075193928555193 2.245891730987034 -2.0269064489620745 200 96 0
0.14809038636636035 2.185767282528071 -1.978733189213673 200 99 0
0.19145562407770012 2.2269747945999687 -2.00891913680602 200 97 0
0.22935760991712756 2.198144858837746 -1.9834511403960238 200 99 0
0.2691219036209035 2.192112126728104 -1.9791415272392845 200 99 0
0.30927992869468385 2.185918573414406 -1.9822196942086256 200 99 0
0.350967835956135 2.195730226976027 -1.9864856502044184 200 99 0
0.3891096093302766 2.17628882930169 -1.9787495150684236 200 99 0
0.4361075144100368 2.1939949369089806 -1.990635027495713 200 98 0
0.48341837620953954 2.2173135814396203 -2.0230282240014197 200 97 0
0.5230925620712661 2.2203136385211493 -2.0315419459372963 200 96 0
0.5635357007982299 2.2151806758034907 -2.025267216313106 200 97 0
0.610138489154069 2.2289214834949687 -2.0440398930714085 200 95 0
0.6597452939113317 2.24613035319493 -2.0740097260182435 200 94 0
0.7790541079490001 2.4852891846403993 -2.3033119579417045 200 82 0
0.825534724305296 2.4800168053955765 -2.2995988832667527 200 82 0
0.859349389090831 2.430374071157844 -2.2713068906937393 200 83 0
0.9039209663931972 2.4168958240946217 -2.2692948578773913 200 83 0
0.9565615385524341 2.427669746287685 -2.2828706984675433 200 83 0
1.002981797896374 2.4043074912595483 -2.279171551367244 200 83 0
1.0301997085844612 2.3581506691456915 -2.2500197492555967 200 84 0
1.0716134458418276 2.337574210496903 -2.2439424776742345 200 85 0
1.11010751963813 2.3150310318271425 -2.2288141749639503 200 86 0
1.1523691849781827 2.296753499194768 -2.2262723632676455 200 86 0
1.2018561468400981 2.2921449176269806 -2.2377648310087177 200 85 0
1.2546921251603704 2.2621639833342204 -2.2238096756615686 200 86 0
1.2910014851699352 2.257902377570326 -2.246505343561704 200 85 0
1.3388735266248912 2.251425609387621 -2.250898508395393 200 84 0
1.349925639192951 2.176743703358167 -2.2029694002732025 200 87 0
1.3906401354899554 2.1539840202199656 -2.189710881418255 200 88 0
1.4199303098902565 2.1210851985790815 -2.1794991294845008 200 88 0
1.4571124718681323 2.095098152012694 -2.1743928503744057 200 88 0
1.4954396251182476 2.066982981003496 -2.1752790565506985 200 88 0
1.5168247116960454 2.023761239912235 -2.145569574219653 200 90 0
1.5552786560076746 2.000199844659778 -2.144773424767745 200 90 0
1.5857239567633408 1.966492581648524 -2.1336942961137 200 91 0
1.6205271759058253 1.934738866994349 -2.132701298516065 200 91 0
1.6554072914896159 1.9105338578125943 -2.125708231962877 200 91 0
1.640286948293759 1.8268929548097619 -2.0599283649980658 200 95 0
1.6737024339933506 1.7992373230307475 -2.057077370411206 200 95 0
1.7263848670903659 1.7915076431265278 -2.077995720712777 200 94 0
1.7521286704592287 1.75169484964736 -2.069825315304093 200 94 0
1.7843913845820487 1.725828773821263 -2.0639837669128975 200 94 0
1.8185521944301035 1.6980523684530278 -2.063936859529505 200 94 0
1.8429957015766534 1.6648701056023059 -2.0506406353726985 200 95 0
1.8719077922257445 1.6287681743485223 -2.048891373800456 200 95 0
1.8999812575970176 1.595576199935319 -2.043981646439131 200 96 0
1.9309787503522946 1.5612320528445607 -2.0455442754579156 200 95 0
1.9757736844798992 1.5446533225758148 -2.0565406270658064 200 95 0
2.00024548872756 1.5046532246730995 -2.0521363376505684 200 95 0
2.0126114148051 1.4631646938292706 -2.030971684127504 200 96 0
2.039395448530426 1.425410231734011 -2.0303107732023133 200 96 0
2.083391890819637 1.4027425969893477 -2.0445834284417344 200 95 0
2.0917209353522788 1.3560122914561676 -2.0244460684416326 200 97 0
2.0929354401064 1.3056483443799711 -1.998564155678889 200 98 0
2.1177096018641213 1.2739872477009546 -1.9938474602807135 200 98 0
2.1487488913923 1.2423828153275718 -1.997807193379556 200 98 0
2.1686131841467 1.2007007919165131 -1.9940170901564933 200 98 0
2.1906616356809026 1.1637568740778599 -1.9907003531401708 200 98 0
2.2130988145855564 1.1304406022358027 -1.986354359548356 200 99 0
2.2577201706376906 1.104421116291429 -2.004307790481619 200 98 0
2.2373316236932843 1.0434981310348326 -1.9671254195268753 200 100 0
2.2570880245289926 1.0090473725795623 -1.9625240404688273 200 100 0
2.3130265464178787 0.9830635785118087 -1.9931968006621266 200 98 0
2.3353065167434726 0.9488130209059802 -1.9917068268735576 200 98 0
2.3683082335861507 0.9115349133464294 -2.0031248619291224 200 98 0
2.426442931529297 0.8898201407082975 -2.032780467050334 200 96 0
2.441194830315651 0.8479105301167139 -2.0280139381565734 200 96 0
2.457813068749176 0.8066457324345992 -2.0254211269340523 200 97 0
2.4784525431656736 0.7630195648312994 -2.0280524019266015 200 96 0
2.510237320972564 0.725908289426443 -2.038875451747472 200 96 0
2.5283005864920653 0.6844028301352105 -2.0390451859747474 200 96 0
2.5380779844607986 0.6406112667719828 -2.033147215447078 200 96 0
2.5472206265005246 0.6002895761052636 -2.026350301588952 200 96 0
2.602200768684043 0.5628834225373344 -2.058550599837865 200 95 0
2.597080247543514 0.5190636677620474 -2.0417521658195272 200 96 0
2.5926119955077542 0.47230280312076506 -2.027211913667036 200 96 0
2.6015833314075634 0.4282304911395861 -2.02386493032531 200 97 0
2.61142928514135 0.38073316702591814 -2.0224834620417913 200 97 0
2.6429635684719086 0.3430281311080547 -2.037092419847157 200 96 0
2.6387742105842786 0.29338236123139994 -2.0259302914151824 200 96 0
2.617740797684649 0.2495529078513614 -2.00154903820023 200 98 0
2.649230353909807 0.20367173519877535 -2.01882771830685 200 97 0
2.6461577488571426 0.16179921629381033 -2.0096275952947127 200 97 0
2.662430534396534 0.1139677176187015 -2.0162921164488465 200 97 0
2.6689361716002136 0.07245423439514087 -2.0157458311608165 200 97 0
2.6440721629103474 0.02695334153448891 -1.9923735981744788 200 98 0
2.656978831600653 -0.02140185326695464 -1.998075498849523 200 98 0
2.6641551611213514 -0.06306485626283781 -2.0001310210521237 200 98 0
2.675984772695351 -0.10865440476182425 -2.006246098221368 200 98 0
2.6349884844884826 -0.11093092641113766 -2.0482808660383114 200 95 0
2.5650911064576865 -0.1514077367122631 -1.9919048051639787 200 98 0
2.5587491343407605 -0.19440404811546605 -1.9855576278684857 200 99 0
2.5447088640378053 -0.2359923683252407 -1.9667484433398355 200 100 0
2.538624773875003 -0.2792092339908885 -1.9689493393996471 200 100 0
2.542791521879156 -0.3265364749924986 -1.9720366545170898 200 99 0
2.5388065900506893 -0.37298254648362994 -1.9692593222665664 200 100 0
2.5321125173275902 -0.4121627632016173 -1.9662887240237477 200 100 0
2.5263974143456482 -0.45493900214374033 -1.9640426291493984 200 100 0
2.527147156683018 -0.4981022790526601 -1.96034256651012 200 100 0
2.515607793132229 -0.5407791059535788 -1.9618944619159417 200 100 0
2.4811462852355017 -0.577082358623381 -1.9390335279792728 200 101 0
2.4712283968247934 -0.6152495435607437 -1.9369920933950808 200 101 0
2.4669772527065357 -0.6616887007155098 -1.9378515185570677 200 101 0
2.455827819509469 -0.6996175100321989 -1.9362092398756163 200 101 0
2.4451075051786892 -0.741058307128537 -1.9343585586841527 200 101 0
2.434804522952115 -0.7826734602633574 -1.9334493527401502 200 101 0
2.4229406335522845 -0.8238400275735556 -1.931913182637578 200 102 0
2.405924037404515 -0.8632087501718608 -1.9268630412839125 200 102 0
2.392503002815931 -0.907176853116668 -1.923705013427498 200 102 0
2.3881809208927693 -0.9514538661627873 -1.930020878034133 200 102 0
2.36621128658666 -0.9921405302294612 -1.9365831961229822 200 101 0
2.335398206298059 -1.0186762370195692 -1.91046881737218 200 103 0
2.2972685795519783 -1.0513196381987489 -1.889122878941676 200 104 0
2.288558536594421 -1.1037452739559839 -1.8885274249532698 200 104 0
2.2727395988101904 -1.1298836197977393 -1.8961827342618778 200 103 0
2.2784973185276156 -1.1838611571623043 -1.9128738432068113 200 103 0
2.247201249461635 -1.215548269416114 -1.901106548602039 200 103 0
2.2199300277553133 -1.2457004793283941 -1.895392486444774 200 104 0
2.210439985944605 -1.292561796018042 -1.9011143342818242 200 103 0
2.1793657307357184 -1.320226696873421 -1.8933612255873054 200 104 0
2.1129760605801966 -1.331808870664666 -1.8505106185682636 200 106 0
2.084480666958816 -1.3595722289302836 -1.845693978804847 200 106 0
2.0578451002854417 -1.3915322902364766 -1.8406897262875201 200 106 0
2.048801626439189 -1.4324020379152738 -1.854599036793749 200 106 0
2.0497748572468777 -1.4910012780020758 -1.8709244729797934 200 105 0
2.0085527072118308 -1.5094132715220487 -1.8570509115544274 200 106 0
1.9848022282554967 -1.547070129909088 -1.8544568282532463 200 106 0
1.948345010916773 -1.5713309508414177 -1.8431010068261384 200 106 0
1.9335622804819619 -1.6130933487748293 -1.8528406422668413 200 106 0
1.886424190079541 -1.6213469846571709 -1.8283391754337721 200 107 0
1.8562945892795097 -1.6529170627855967 -1.8309074229364652 200 107 0
1.8127307468620513 -1.6720567389678702 -1.8110763625681494 200 108 0
1.7909467643936647 -1.707789913258105 -1.8163208387511656 200 108 0
1.7580060407917935 -1.7329301090593312 -1.8108424138105388 200 108 0
1.7276412843729956 -1.7572520188713838 -1.811558220069802 200 108 0
1.6984949067284811 -1.7859291892628477 -1.8110754354129908 200 108 0
1.6649235781746572 -1.802333595122873 -1.7934212362770643 200 109 0
1.6275803711947292 -1.8323500540522781 -1.7947414032991607 200 109 0
1.4295096033136814 -1.6612873860567587 -1.6088815851275884 200 119 0
1.3962155946237123 -1.6808916256814306 -1.5991767244565531 200 120 0
1.4292912206470958 -1.7798937263414418 -1.6701847740628915 200 116 0
1.3095517977042577 -1.687287727513375 -1.5623821247416714 200 121 0
1.2726877908003478 -1.6943868320406252 -1.554422291578149 200 122 0
1.2442927656617229 -1.7110181836043536 -1.5483743664557221 200 122 0
1.2130064870612218 -1.7316489588862916 -1.5506020622762684 200 122 0
1.363164018456789 -2.016342922206251 -1.7850153973715444 200 109 0
1.3075112821800878 -2.0048784692393253 -1.7554718626490033 200 111 0
1.2719600208658082 -2.0259476800224947 -1.7491121356649848 200 111 0
1.2334794864356606 -2.035837196176913 -1.7460783708656793 200 112 0
1.199535257004677 -2.0559769830271932 -1.7462985576541954 200 112 0
1.1521407832244297 -2.0521828458500733 -1.7269226945146354 200 113 0
1.1160656037723555 -2.06751181121556 -1.7243897003173037 200 113 0
1.0858311455891048 -2.093846986060799 -1.731545991948455 200 112 0
1.038131152567146 -2.085802162254313 -1.7109299839575087 200 113 0
1.0022312808768916 -2.103283262446085 -1.7058621683905228 200 114 0
0.9674591821399544 -2.1170918148285915 -1.7105422936831667 200 113 0
0.936260746673842 -2.142136573011267 -1.7187056981360376 200 113 0
0.8998232804472173 -2.1555448651836753 -1.718029265800061 200 113 0
0.8569560569152095 -2.1556399493160865 -1.701248252145723 200 114 0
0.8209549173343047 -2.1661884293555307 -1.7055977257931725 200 114 0
0.7855427056168238 -2.1843302209446587 -1.7041995873488702 200 114 0
0.7474690219938128 -2.1919494226220384 -1.7012421196956433 200 114 0
0.710283307164153 -2.1988242141822885 -1.7044158496944322 200 114 0
0.6751185839077233 -2.2150945207476114 -1.709270722213523 200 114 0
0.6369978852178175 -2.2217251847719246 -1.7072195106600045 200 114 0
0.596573127964814 -2.2192890955342848 -1.6987869947209073 200 114 0
0.5583100703065167 -2.223746869540069 -1.696214528178872 200 114 0
0.5202128614555147 -2.22822667962809 -1.6942145238929578 200 114 0
0.482580635858612 -2.2342293122878156 -1.6939186255567917 200 114 0
0.4429990622774268 -2.2301173520483983 -1.6865121514278985 200 115 0
0.4026420681814726 -2.2196018778773787 -1.6748429862687906 200 115 0
0.3654897379126979 -2.2250612659453792 -1.6757827944784647 200 115 0
0.3160408299901078 -2.1497367628841038 -1.6106371826341703 200 119 0
0.27772276730966794 -2.1325504131626762 -1.6015632238027806 200 119 0
0.24189942812311277 -2.137410322857491 -1.5978792001950424 200 120 0
0.20591563427260196 -2.134464534741176 -1.6004891569436657 200 119 0
0.17023135781855672 -2.1395083096364247 -1.5979459057840286 200 120 0
0.10277851228060235 -1.633846562054295 -1.2247294554622041 200 140 0
0.09856161349214382 -2.1375043725222675 -1.5969535578074936 200 120 0
0.06056942454180487 -2.0563290654923283 -1.542872116937149 200 123 0
0.025888128454823755 -2.0332498016066722 -1.5214444482371137 200 124 0
-0.00792646114265578 -2.00323599037993 -1.5063278853092692 200 125 0
-0.04106356477214175 -1.989036040668845 -1.4925534571895938 200 125 0
-0.07441043088357906 -1.9892541881535888 -1.5009591842182537 200 125 0
-0.10735868234110062 -1.9845400503548303 -1.4952395499931206 200 125 0
-0.14038464712394527 -1.978094458889639 -1.499541564132849 200 125 0
-0.17225906465650143 -1.9615373855841705 -1.4911733298310044 200 125 0
-0.2048867447453933 -1.9590274193755028 -1.4885228254758458 200 125 0
-0.23810746213208012 -1.9565202848458079 -1.4971483632105056 200 125 0
-0.26896237349172536 -1.9384395597647937 -1.4888896247823638 200 125 0
-0.30126655192745244 -1.932521136140262 -1.490396431511057 200 125 0
-0.3334613187861055 -1.9286410414120276 -1.488565847470162 200 125 0
-0.353763577321485 -1.8571908184979289 -1.4453863272660692 200 128 0
-0.3847943462157913 -1.8529027348985272 -1.4441139207576112 200 128 0
-0.42251757712441523 -1.8732107741618351 -1.473067660559056 200 126 0
-0.45349000585699045 -1.8638675614658162 -1.4740668804037684 200 126 0
-0.4845415989969592 -1.854986189941365 -1.4758814057939371 200 126 0
-0.5143282627834541 -1.8441678049741186 -1.47132753158469 200 126 0
-0.5443129015181322 -1.8293813248887933 -1.4745674088996525 200 126 0
-0.5749993072913901 -1.819673411944623 -1.4770574499579334 200 126 0
-0.6046481349545689 -1.8068020394910238 -1.477426148065289 200 126 0
-0.6380415219083848 -1.8073364205016873 -1.483985875757913 200 126 0
-0.7254176609507217 -1.9465935728798391 -1.6169721485553437 200 119 0
-0.7393308995338376 -1.8934366922857138 -1.5873022123403666 200 120 0
-0.7705401835145275 -1.8744035215400991 -1.5783215623020157 200 121 0
-0.7915235254349215 -1.8406087070594352 -1.5709125043044456 200 121 0
-0.8251033172751592 -1.8259299524588999 -1.5718986018617631 200 121 0
-0.8552848131869942 -1.813034891628084 -1.5706919685510685 200 121 0
-0.9148362679491856 -1.85705978722536 -1.6253699731185227 200 118 0
-0.9459817985539244 -1.8380250302305583 -1.6315957449842275 200 118 0
-0.971442435084458 -1.811186605065519 -1.6255457043554382 200 118 0
-0.9986192175472551 -1.7910080119210767 -1.620157251497465 200 118 0
-1.022203565506792 -1.767473044227568 -1.6195357725577213 200 118 0
-1.0537062009187086 -1.7445309683278933 -1.6221276098662532 200 118 0
-1.083011023599743 -1.7287183380942632 -1.6221651334861213 200 118 0
-1.1282464224915456 -1.731652133858568 -1.6520374412942629 200 117 0
-1.159418009895432 -1.717661940149484 -1.6551592605220884 200 116 0
-1.2631117333014208 -1.801040244858751 -1.7660248541839407 200 111 0
-1.2871562887141894 -1.7732260448101902 -1.75782277048351 200 111 0
-1.3100261242881648 -1.7413372094626625 -1.7520706283204786 200 111 0
-1.3385293108799103 -1.7142125226771514 -1.7575859583565712 200 111 0
-1.391971511404792 -1.7210104655628835 -1.7927411550082977 200 109 0
-1.4052235848538057 -1.683888706825426 -1.770574818977276 200 110 0
-1.4325413465069037 -1.6518491093332208 -1.7788449905889026 200 110 0
-1.5314374024591362 -1.701137827732617 -1.852589448152603 200 106 0
-1.5459962567492855 -1.66674916948131 -1.8530367481921566 200 106 0
-1.5688404854740126 -1.6308709975907554 -1.8535895878956044 200 106 0
-1.5465453282678943 -1.5532214810589544 -1.799452524627915 200 109 0
-1.5654449973362408 -1.522023533763806 -1.7921373867491504 200 109 0
-1.5266318863233685 -1.4309134640545356 -1.7256623603846157 200 113 0
-1.5476246920297723 -1.4041672828865182 -1.7232776950598663 200 113 0
-1.557689623627755 -1.3620049493793471 -1.7143663448366526 200 113 0
-1.5778406446304678 -1.3351396409459737 -1.7125275703844205 200 113 0
-1.6009602053273 -1.3078401180257162 -1.7168356026832763 200 113 0
-1.6464937726728555 -1.2950929610341841 -1.7476618920229436 200 111 0
-1.6665280290002389 -1.2646547845702603 -1.7494019019139448 200 111 0
-1.7034610841136701 -1.2466461759260932 -1.7692546840291619 200 110 0
-1.7185412038347927 -1.2154449109855263 -1.7647152855578283 200 111 0
-1.735882045353388 -1.1798873212195096 -1.7673614921246834 200 110 0
-1.7471995018045048 -1.1497350938040698 -1.758396816696799 200 111 0
-1.7651771568651742 -1.1149539869406102 -1.7628339291852242 200 111 0
-1.781618963611617 -1.0854169821241824 -1.7624031444070618 200 111 0
-1.8176967793804457 -1.0581458766783491 -1.7874590238376271 200 109 0
-1.8493689786792782 -1.0368545073008284 -1.8028901024157629 200 109 0
-1.8847476247875228 -1.010588579383513 -1.8258644840396567 200 107 0
-1.9139113682187028 -0.9834383377492183 -1.841353502304288 200 106 0
-1.9333589053751197 -0.9509389686777951 -1.8479503972933713 200 106 0
-1.9593321756895021 -0.9213465237881131 -1.861264368221613 200 105 0
-1.976492622647044 -0.8873361799748786 -1.8666996159879063 200 105 0
-1.9895954974393029 -0.8580006835468343 -1.8658812780030825 200 105 0
-2.012922315414444 -0.8198300881621217 -1.881162573689643 200 104 0
-2.0269403630071565 -0.7841706630637865 -1.8852834126471585 200 104 0
-2.065069362051177 -0.7573049575721732 -1.9122946664032077 200 103 0
-2.032749035118632 -0.7049739153084639 -1.8747124656754492 200 105 0
-2.0347406510521786 -0.6668818439631651 -1.876149967126307 200 105 0
-2.048456989802747 -0.6334505902340467 -1.8746300756843748 200 105 0
-2.057340294041498 -0.5965000140137727 -1.8770221782906056 200 105 0
-2.11518338465084 -0.5728333750720546 -1.9245345992474583 200 102 0
