ply
format ascii 1.0
comment Created by hansol
element vertex 706
property double x
property double y
property double z
property uchar red
property uchar green
property uchar blue
end_header
10.865678258133608 0.9148205978591886 -1.327243920481516 200 163 0
10.857145033226866 1.106331815255522 -1.3332148709156357 200 162 0
10.862701035670675 1.2999311526611559 -1.3411165564484966 200 162 0
18.58721194532209 2.5560341524909225 -2.3074994606664267 200 95 0
19.06417587792353 2.963525402233205 -2.380123451822812 200 90 0
19.30221581233614 3.348618510892343 -2.4238132792172125 200 87 0
16.1668506397301 3.098032987726856 -2.0421400146940503 200 113 0
16.109339921573618 3.381310230616575 -2.047220617208146 200 113 0
16.000371380162765 3.652925549246749 -2.0459910651145634 200 113 0
15.928986969632426 3.9357502914574316 -2.04292629690186 200 113 0
15.871278935786972 4.214992517935659 -2.055627197764995 200 113 0
15.863690519821002 4.208995784342409 -2.346099302827781 200 92 0
15.936093812331137 3.929592150017915 -2.342151068803793 200 93 0
15.986537303030325 3.6450748835517137 -2.3353448229587763 200 93 0
16.032509271094792 3.3602149310952654 -2.2997444073426703 200 96 0
16.088476710275245 3.077624400239187 -2.323013130394095 200 94 0
16.17314600613308 2.800027051743958 -2.322230956172 200 94 0
16.223025415853016 2.515772477843455 -2.316780385861461 200 94 0
17.91966706272732 2.4571406901706117 -2.545610997327256 200 79 0
17.987929861225936 2.1451175946360515 -2.542251014907674 200 79 0
18.004494324032464 1.8267869937258434 -2.531969915981774 200 80 0
10.903174777379602 0.9133842363348135 -1.5065517484402438 200 150 0
10.895987875272496 0.7202780500557993 -1.4984445810648441 200 151 0
10.869666355150347 0.5264923193701798 -1.507297865505274 200 150 0
10.87799142334105 0.33547370527329984 -1.5018480871209094 200 151 0
10.91240818717816 0.14473580523767915 -1.5002183518039227 200 151 0
10.98699725169212 -0.047274179089466274 -1.5042887699179288 200 151 0
15.272121301973893 -0.333994749915393 -2.082721982124403 200 111 0
15.368270679503137 -0.605259029127039 -2.0605406060508473 200 112 0
14.708277309221536 -0.8390841595085048 -1.9908404200991874 200 117 0
14.48277376978 -1.0805533764791628 -1.9276639992363407 200 121 0
14.27854993683755 -1.3187657364187784 -1.9193083321040985 200 122 0
14.021635962823897 -1.5436817560906069 -1.8786395002651721 200 125 0
13.45901380298212 -1.7213014138375036 -1.7976408801141928 200 130 0
13.427977565530911 -1.9573831414601188 -1.7881592706261562 200 131 0
13.096054781975152 -2.144284913644773 -1.7390142514140543 200 134 0
12.860798444094716 -2.33812336041889 -1.7031743721164778 200 137 0
12.614849325944688 -2.5227497475913334 -1.6663398827192204 200 139 0
12.523699640412019 -2.733774722454493 -1.6503146498812638 200 141 0
12.1576369586542 -2.8780977022685486 -1.5984484501421754 200 144 0
12.157164137464775 -3.1026276153934926 -1.5734090456515128 200 146 0
11.879157519127938 -3.2559014874955072 -1.5554517509298345 200 147 0
11.661401927042265 -3.2068010514479646 -1.7419922279984992 200 134 0
11.537091359468533 -2.9573332858688883 -1.7460531376703357 200 134 0
11.518173224852028 -2.7379467443699737 -1.7455129897241484 200 134 0
11.645346162549034 -2.551696842126701 -1.7466388265136865 200 134 0
11.687019945869144 -2.346600568059832 -1.7558535727212765 200 133 0
11.994084913356616 -2.189909149578263 -1.8053379455893108 200 130 0
12.361830776571098 -2.034650596864025 -1.8865399969522096 200 124 0
12.393005090521811 -1.815601011633863 -1.8732621153631004 200 125 0
12.715928890646039 -1.6352980009282532 -1.9266048002103187 200 121 0
12.807727906144882 -1.4188485081891582 -1.9454061794306763 200 120 0
12.85843849040747 -1.196165082349837 -1.9583521757269946 200 119 0
13.187239306144486 -0.9933445088237286 -2.014147606127133 200 115 0
13.57035644463316 -0.7835740316816829 -2.1031428369174927 200 109 0
13.744846115239188 -0.5504724679390595 -2.1123109951982193 200 109 0
14.015476868689976 -0.314649906807902 -2.161083232863095 200 105 0
14.311622242947124 -0.06572723040974474 -2.2145810250166593 200 102 0
14.717803173678368 0.19196939381570388 -2.2590288738086297 200 98 0
11.045252343661213 0.3388672867037238 -1.68182844453545 200 138 0
10.880889920203686 0.5216095112356638 -1.7030028045186345 200 137 0
10.845849014076418 0.7113496036658459 -1.7045658993485897 200 137 0
10.830381503967185 0.9019440776051345 -1.709484018468296 200 136 0
10.84609279740069 1.09572225538204 -1.7196415263750138 200 136 0
10.91641986332022 1.2972537741810506 -1.73884560070201 200 134 0
16.859227042549556 2.3050255995628604 -2.698411422138169 200 68 0
16.906108067987237 2.6247940995051384 -2.710285949625946 200 67 0
17.74186083286696 3.0652786119608284 -2.8686185626947496 200 56 0
17.689458801783132 3.377927289159612 -2.8754335967238327 200 56 0
16.056967352778436 3.3647724970787727 -2.618618917427608 200 74 0
15.934317616832201 3.6284686300382583 -2.6192972581857172 200 74 0
15.865275076146983 3.9077866742217293 -2.623303596033914 200 73 0
15.796923607890465 4.187296983764051 -2.6278687669351655 200 73 0
15.785135351441197 4.184792070074914 -2.8832111034260945 200 55 0
15.84731486487953 3.8993364306147082 -2.941713101961024 200 51 0
15.906439862254253 3.6171726994831217 -2.878750723943079 200 56 0
12.137512812081946 2.5361284164922417 -2.2062970678508274 200 102 0
12.198119194674597 2.325188381230022 -2.205550614768129 200 102 0
16.101884832243964 2.776155602118312 -2.8965045420262667 200 54 0
16.73809981794146 2.582972621589962 -2.996122087089356 200 48 0
16.511460862645812 2.251099147933223 -2.911863955869125 200 53 0
16.315573723169024 1.932004539835737 -2.8934205193664098 200 55 0
16.24283628055413 1.6337694382607875 -2.8679368936082565 200 56 0
10.846147508849732 0.8982586003394488 -1.907046541956675 200 123 0
10.864424385422685 0.7077240220453309 -1.8830879671573668 200 124 0
10.84046888683775 0.5142362044322434 -1.891152526781965 200 124 0
10.84918507656785 0.32329357055934527 -1.8857730514599171 200 124 0
10.861864635907232 0.13231640922243035 -1.8814314654215736 200 125 0
11.006809144480888 -0.0597183256274194 -1.9002679333599675 200 123 0
13.95547233975371 -0.3214492991054069 -2.4018444188735013 200 89 0
13.676161701006938 -0.5559925989776743 -2.346869659310683 200 92 0
13.52308196869977 -0.7883564963570568 -2.3142077245741617 200 95 0
13.26324869968151 -1.0066289992209634 -2.2400802839014737 200 100 0
13.194603337846855 -1.2362692654100005 -2.2467762038714927 200 99 0
12.778440039331615 -1.4244409186041436 -2.1710841509745236 200 105 0
12.601967468418803 -1.6296412899364598 -2.1367361280814294 200 107 0
12.609819617774033 -1.856658830627125 -2.1340959289252814 200 107 0
12.495649092134737 -2.066246291974544 -2.133677217184866 200 107 0
10.504524148703975 -1.9261806019517602 -1.7721684987494084 200 132 0
11.804575320116584 -2.379751087103593 -1.988892484556086 200 117 0
11.637794906166551 -2.558328864683558 -1.9377037911225818 200 121 0
11.452110677149596 -2.7307057787963975 -1.9255552830194707 200 121 0
11.178730760729202 -2.8724774377432283 -1.858128681976262 200 126 0
11.045257041110276 -3.047444810883686 -1.8547634432514455 200 126 0
10.910218215240965 -3.0202038535714424 -2.0356354262726986 200 114 0
10.711679192343485 -2.7634369809148733 -1.998666351052048 200 116 0
10.47531715669967 -2.5054311906324425 -1.9361168806556153 200 121 0
11.063071837225113 -2.4440497726671104 -2.0856822080850326 200 110 0
11.171602779059889 -2.25759015015825 -2.0912602302941186 200 110 0
11.299410713608868 -2.0808528411327827 -2.1130142897601765 200 109 0
11.485527602673086 -1.9030376413031425 -2.153423224546907 200 106 0
11.406353217070917 -1.6879195617953786 -2.137968252880387 200 107 0
11.730059698449796 -1.5214712114296 -2.204506480733216 200 102 0
11.873366051721211 -1.3318111289564862 -2.2324333984739333 200 100 0
12.121007956692338 -1.143841392232253 -2.2832081362015906 200 97 0
12.093712445495418 -0.9266832729210417 -2.2827198267324733 200 97 0
12.574737744167223 -0.7409904929641496 -2.378821639962299 200 90 0
12.793403375265392 -0.5278886600640154 -2.426065549469732 200 87 0
6.702197099320429 -0.15831397438261427 -1.27429648723364 200 166 0
6.7032264276976425 -0.037934488230878693 -1.2781460181131643 200 166 0
13.14461911727185 0.15734000852109012 -2.513495190679697 200 81 0
10.964329843847242 0.32096892256945914 -2.103515447070762 200 109 0
10.850066633505495 0.5092181565508819 -2.0886531348047264 200 110 0
10.803021393469706 0.6981143006421507 -2.087051797506417 200 110 0
10.787347341439743 0.8886836212331855 -2.072389684997673 200 111 0
10.786411778791605 1.0801590651547395 -2.100031652692344 200 109 0
10.796782924070975 1.2776145366022127 -2.1085918705031808 200 109 0
15.126736010369877 2.0560169028058723 -2.970263721953943 200 49 0
15.705534496857698 2.4176315322411397 -3.0980042014700393 200 41 0
15.825229930192123 2.7227390377401623 -3.136503663144224 200 38 0
16.145832741740964 3.0721977351003016 -3.2159592646938187 200 32 0
16.199141949234054 3.3793791969272036 -3.213941001627303 200 33 0
15.893797418423953 3.6097859283659655 -3.199290754756604 200 34 0
15.793521247994978 3.8869664948418223 -3.1901188296218983 200 34 0
15.822619351982206 4.191674637752557 -3.214084873412659 200 32 0
16.59967947501607 4.387374945691742 -3.691739267966606 200 0 0
16.31944131428888 4.006092568563342 -3.6088036704125104 200 5 0
15.88087195434817 3.595978647275334 -3.4989347947536253 200 13 0
15.904936511052894 3.31313046154185 -3.4796178186950573 200 14 0
15.96311737285957 3.03195839498758 -3.4748014103504383 200 14 0
15.859393262479585 2.716935345357701 -3.469307094386885 200 15 0
15.91211401708569 2.4433129051506457 -3.4311854503639774 200 17 0
15.13195216557431 2.0505949597531217 -3.2486347855377766 200 30 0
15.137621989988862 1.7794966916272652 -3.2638674563611314 200 29 0
15.051586464303801 1.5008383284708087 -3.1776611177687966 200 35 0
14.768208039160056 1.2097058885117213 -3.105987615137637 200 40 0
10.811174798243847 0.6933733382673083 -2.2852763805713177 200 97 0
10.793701245533777 0.5010915023963542 -2.2739139667957495 200 97 0
10.795844252384438 0.31033142758348564 -2.267182342316542 200 98 0
10.82803439799895 0.12004971400440966 -2.2672210725729802 200 98 0
10.829699355564903 -0.07106502277490875 -2.261325690964294 200 98 0
12.972316377486132 -0.3132659911458142 -2.6782032001318608 200 70 0
1.80150052869628 -0.0755643639782968 -0.37760655715119557 200 228 0
12.552995867983665 -0.7467084966149385 -2.579894875662213 200 76 0
12.271276107499254 -0.9571952678734827 -2.5360525078709495 200 79 0
11.875638057301504 -1.1287371911369954 -2.453231037900091 200 85 0
11.841100820753258 -1.3364855171166656 -2.4423418710929754 200 86 0
11.555825662506914 -1.5110176149337036 -2.380333183633481 200 90 0
11.376480374631134 -1.690749575869064 -2.320063742083669 200 94 0
11.1587418932104 -1.8611357081088118 -2.2938637376081203 200 96 0
11.22612800099858 -2.076275553175189 -2.306093741044079 200 95 0
10.422202980743128 -2.118088485533667 -2.139899239599559 200 107 0
10.953238922714588 -2.4276136450881727 -2.24831081083375 200 99 0
10.330013938674002 -2.4810691014581487 -2.120258717843291 200 108 0
10.279279679540386 -2.6611056867636593 -2.110182796267238 200 109 0
10.259568097984548 -2.8495719954425973 -2.106941206015733 200 109 0
10.142766146135907 -2.8226005979920754 -2.279805607724954 200 97 0
10.00348249270494 -2.598746777130685 -2.2419888528934884 200 100 0
10.013841911520204 -2.409992413636456 -2.247393856736313 200 99 0
10.146160981805933 -2.253399577251074 -2.2761422992694404 200 97 0
10.354914181951724 -2.108907815254679 -2.3225348654375066 200 94 0
10.401694959168132 -1.9321204387677036 -2.329744234140808 200 94 0
10.49412142588053 -1.7571518164481363 -2.332150259487629 200 93 0
10.885705083783964 -1.6271856411935681 -2.4406490362142286 200 86 0
11.008377246961755 -1.4474544250251118 -2.470228984537648 200 84 0
11.125172715614985 -1.2635291100194854 -2.4990796457634747 200 82 0
11.208392126070034 -1.0729721632382199 -2.520982198502621 200 80 0
11.249825587635742 -0.8777968260246546 -2.5547095999344265 200 78 0
11.405228195553734 -0.6865901903464434 -2.5734510152451175 200 77 0
11.48194145594219 -0.48789106752020645 -2.595726092743642 200 75 0
11.847410951144989 -0.2939098961721713 -2.6840514465303884 200 69 0
11.922495428834289 -0.07970875938602989 -2.6856677964898577 200 69 0
12.463949910393938 0.13683509473340366 -2.814478821743067 200 60 0
12.203497538542436 0.3491605795971615 -2.7853595021907105 200 62 0
10.923197820403328 0.5058801243920558 -2.500233406320518 200 82 0
10.752861235834207 0.6843555836477108 -2.4699715561164366 200 84 0
10.73434933352322 0.8782824787706074 -2.472590631983821 200 84 0
10.722241345578022 1.0684556884973828 -2.478418418849968 200 83 0
13.310240212661078 1.5594718625241912 -3.0174869065590566 200 46 0
13.45235234772884 1.822966151851714 -3.1332423400939398 200 38 0
13.41693160136835 2.0604593611451394 -3.137937294668689 200 38 0
13.467156491567923 2.3071979229898494 -3.167458644682087 200 36 0
13.785816318875922 2.6193330048319488 -3.2531314440108954 200 30 0
13.734131572522289 2.8564826314755387 -3.261518321997455 200 29 0
14.585475490386315 3.303846136725255 -3.481588636554542 200 14 0
12.464674513634762 3.291247749316583 -3.0082414733133693 200 47 0
12.163403365742615 3.2085253843715624 -3.167799908467159 200 36 0
11.04289917705778 2.714547779847393 -2.850624557226396 200 58 0
10.734158696446826 2.433009194152684 -2.761169967724455 200 64 0
10.77647018362237 2.237815168799798 -2.762276043734143 200 64 0
10.815270083785615 2.0467007279622704 -2.7588483892614635 200 64 0
10.846014614015129 1.8543492988084656 -2.7741036319104624 200 63 0
10.95900391663513 1.6742367429631726 -2.7705196071653955 200 63 0
10.833061921751042 1.4591560176583043 -2.727341033981477 200 66 0
10.90136362718425 1.2722435602989468 -2.733788924036036 200 66 0
10.420166378772976 1.0294275794020962 -2.603466455988169 200 75 0
10.815089455758066 0.8754139124521524 -2.692758196689021 200 69 0
10.830132544462224 0.6839153327424968 -2.6877397654944004 200 69 0
10.759502511765822 0.4884521088004178 -2.6621210202981676 200 71 0
10.77133593632419 0.29857632150071706 -2.637638202462608 200 72 0
10.820846787480038 0.10794917993833293 -2.662858504771439 200 71 0
10.980615302938254 -0.08471788935800975 -2.695766949886607 200 68 0
11.40636652368767 -0.2890664994747259 -2.773175819557546 200 63 0
10.937548905801986 -0.47156067813524705 -2.674236081580379 200 70 0
10.529080977448036 -0.6406246030326869 -2.5699560887943433 200 77 0
10.227091513573127 -0.8039267706845283 -2.4925210792242534 200 82 0
10.423294469391646 -1.0049901934492569 -2.5371110096762255 200 79 0
10.404328058095675 -1.1890591672798765 -2.529839687851929 200 80 0
10.259948198086924 -1.3565805212162723 -2.4926763331867683 200 82 0
10.174770230677835 -1.5286280287734897 -2.470500569228872 200 84 0
9.78974577609784 -1.6468096467954583 -2.3580305079866766 200 92 0
9.993114848271537 -1.8642874871322044 -2.4251409102518493 200 87 0
9.84331872523326 -2.0167528568444704 -2.3889961904285086 200 89 0
9.780627317435089 -2.1829457960957983 -2.3564520128256823 200 92 0
9.614650963546323 -2.3246417686734295 -2.3177574628326907 200 94 0
9.667470219976723 -2.52026229810675 -2.350239218591349 200 92 0
9.59995780819619 -2.6802357480161705 -2.340925736948783 200 93 0
9.553568333285412 -2.68039179240746 -2.508767831115692 200 81 0
8.850473583424645 -2.3154072917295765 -2.321125947144624 200 94 0
8.888138499139142 -2.1542647152035257 -2.332328621131606 200 93 0
8.984701006444586 -2.0144371330959356 -2.3519784058527904 200 92 0
9.281108586868704 -1.9037419150562176 -2.4142233802219093 200 88 0
9.231467756046031 -1.7297077881699028 -2.414460661644092 200 88 0
9.165739193523002 -1.5460520668834454 -2.3997808322431733 200 89 0
9.171807592615286 -1.3849579393256939 -2.3990410564105265 200 89 0
9.330390546066056 -1.2394999229684063 -2.4240735238112054 200 87 0
9.564677889457792 -1.099960431931705 -2.5043397391531848 200 82 0
9.509708318546803 -0.9191559000810539 -2.4936822045938225 200 82 0
9.394857856467535 -0.7456773769681234 -2.482182254841125 200 83 0
9.85929949176936 -0.6017533593617578 -2.590939147508732 200 76 0
9.866914045097522 -0.42705907646409275 -2.5966299335613647 200 75 0
9.559634604699172 -0.24428339880801964 -2.5199183490154877 200 80 0
9.554148726189267 -0.07929064967162391 -2.5230693828610113 200 80 0
9.516520934900846 0.09398042983316907 -2.5185603297126504 200 81 0
9.690490291439227 0.2678203801759992 -2.552503734666117 200 78 0
9.803205042164805 0.4444915610545838 -2.6071482204557945 200 74 0
9.595766864846363 0.6011776689701921 -2.560153090314752 200 78 0
9.582422082641788 0.7710568001092832 -2.5646049600482828 200 77 0
9.840231681952702 0.9676376574632862 -2.6424613335587845 200 72 0
9.881547285054722 1.1489174799482047 -2.6630911432951567 200 71 0
9.855026367153384 1.3233304513672055 -2.666102006524853 200 70 0
10.010132916726308 1.5300763541873936 -2.7163852266990913 200 67 0
9.831062379962624 1.6819238000490084 -2.69735085817777 200 68 0
9.803383542135172 1.8564531294723856 -2.683196473213517 200 69 0
9.683177036450823 2.007593798966892 -2.6661414927008553 200 70 0
9.516548028548938 2.1544140598298713 -2.629628097113481 200 73 0
9.466298120224511 2.3209439495700996 -2.6469528087950227 200 72 0
9.996396439366741 2.6342707818499314 -2.79597898506188 200 61 0
9.791163404820532 2.5826949636057233 -2.924431212230649 200 53 0
8.92817991691036 2.1861624612660795 -2.652505620018468 200 71 0
8.82414348733118 1.9906643050609687 -2.611801006881431 200 74 0
8.937138845868184 1.8499467534128082 -2.632232554166012 200 73 0
8.92784809502896 1.6832227434515585 -2.6172028480832688 200 74 0
9.001535187806427 1.5320830911389265 -2.6271063215121107 200 73 0
9.029863196016915 1.3723714895052856 -2.624324058879204 200 73 0
8.911834940968971 1.1929466049785882 -2.5797796790801035 200 76 0
8.76504036185416 1.0152452511397643 -2.5278533373409195 200 80 0
8.716715516218024 0.8531362636182571 -2.505162925844036 200 81 0
8.717210749925734 0.6972314478988344 -2.4971692392467357 200 82 0
8.882232229581362 0.5522157986932175 -2.5200315119973697 200 80 0
8.887471300221634 0.3941801101801558 -2.5312104650690577 200 80 0
8.92886598792106 0.2374107314771178 -2.5365187470874235 200 79 0
8.980532502625925 0.07944105705481465 -2.5452862801133698 200 79 0
9.157796923658546 -0.07738935422264065 -2.6075188978956767 200 74 0
8.94445490220936 -0.2381435902140937 -2.5250906009058167 200 80 0
8.651822274148598 -0.3839179830698207 -2.4385214226702527 200 86 0
8.649557307385974 -0.5375524340597525 -2.434501726613132 200 86 0
2.558180450021276 -0.20430353391842326 -0.7143780939792229 200 205 0
2.5445406480579513 -0.24888846544230284 -0.7147023941128196 200 205 0
2.530637736645056 -0.29286135376399325 -0.710311877515439 200 205 0
2.525537908286198 -0.3376878221760884 -0.7085642515420482 200 206 0
8.711477997159758 -1.3221694757551987 -2.4435829067954 200 86 0
8.634579226623451 -1.4672754307102103 -2.422092235980483 200 87 0
8.856300238820939 -1.6666851849778594 -2.484970861808138 200 83 0
8.833108266447601 -1.823271135177027 -2.4631079718204303 200 84 0
8.789419097820966 -1.9740138349977254 -2.472826694715511 200 84 0
8.754977887424108 -2.1338746058610436 -2.4622006248834114 200 84 0
8.717830616892423 -2.2887910322900193 -2.4548636429915707 200 85 0
8.34096129746986 -2.348148829766182 -2.3523203751567494 200 92 0
8.030023866131456 -2.2683648597169337 -2.422136507829526 200 87 0
7.638370159001625 -2.008525410093642 -2.3035410569559325 200 95 0
7.671518669016216 -1.8727437350870249 -2.309908981676114 200 95 0
7.7026720060647325 -1.7364728378977563 -2.3162490669679743 200 95 0
7.836198169721686 -1.6213293740992214 -2.3539130709381655 200 92 0
7.88649742719664 -1.4907170038314483 -2.3645204556756476 200 91 0
8.009097693169336 -1.3632360696850154 -2.4025861003467397 200 89 0
7.845514149180648 -1.1968534157245028 -2.3507092645146206 200 92 0
2.4627783449353635 -0.3298672581021121 -0.7385196380257104 200 203 0
7.951145174210716 -0.9218093413088375 -2.384770925456239 200 90 0
7.932973032122832 -0.777406560699864 -2.3803384950449122 200 90 0
7.932875107515766 -0.6355639714515701 -2.3819028898654566 200 90 0
7.93431047714669 -0.4941914384196434 -2.384502512985249 200 90 0
7.940453422479585 -0.35325901815005606 -2.3890934832123842 200 89 0
8.08053686602784 -0.21587980955377842 -2.434619533847538 200 86 0
8.031623388444784 -0.07193738060199197 -2.423822776000514 200 87 0
8.231291365074213 0.07243805726957539 -2.4887176117658907 200 83 0
8.072099091057975 0.21444609388620187 -2.4457254500368544 200 86 0
8.188092857186582 0.3585615127894943 -2.502920926365066 200 82 0
8.176292168211528 0.5083163751318632 -2.489518998283724 200 83 0
8.243662388023397 0.6597331468852531 -2.5171197363632225 200 81 0
8.193998724089328 0.802540355864179 -2.509622626378687 200 81 0
8.177465384818941 0.9479399147230901 -2.5128393578107597 200 81 0
8.13953965196252 1.0861236076896839 -2.511961594640537 200 81 0
8.079182775132319 1.2292470565781204 -2.5163342385103156 200 81 0
7.96708538135398 1.3529916069835783 -2.478528097005901 200 83 0
8.00990375663742 1.5247257482137322 -2.4921946978797216 200 82 0
8.045626208929846 1.6631585700108098 -2.5409924374505284 200 79 0
8.042003389676674 1.8122335022299778 -2.5521977399535776 200 78 0
8.095626944905321 1.9757452287224109 -2.56684228578687 200 77 0
8.05451494448063 2.1227204866535225 -2.5638950416660196 200 77 0
8.138617535648203 2.1429606486287596 -2.7521928396949553 200 64 0
7.499525534611494 1.8324655146640947 -2.522785465170798 200 80 0
7.540465586396618 1.6963202799228778 -2.5268890949724505 200 80 0
7.559126091058358 1.5595989499890808 -2.520945857148415 200 80 0
7.553858077949573 1.4235349445016776 -2.5198315201573664 200 80 0
7.663415276359006 1.2984802933175448 -2.5331088073616965 200 80 0
7.511523381491073 1.1355492663805722 -2.4728244969943702 200 84 0
7.550048509719893 1.008555675584861 -2.4742801296785286 200 84 0
7.369280874825939 0.8469908657419869 -2.4081418295595216 200 88 0
7.380031463742997 0.7153971989810923 -2.4178882628966516 200 87 0
7.544597367587697 0.5960510861191488 -2.4496991149373786 200 85 0
7.458244420186992 0.45572559012832947 -2.429181912754123 200 87 0
7.470550791689042 0.32337422263391996 -2.4125340186057764 200 88 0
7.519256340167271 0.19159067322202097 -2.4225692858592556 200 87 0
7.533223463108212 0.05795489623537554 -2.421966086649082 200 87 0
7.609322893855898 -0.0767391954193269 -2.4418807921204695 200 86 0
7.465433468997395 -0.2085543964903108 -2.4062005618148508 200 88 0
7.453695260741602 -0.3403334975588416 -2.3847827910393744 200 90 0
7.451154419471499 -0.4688323084317218 -2.382091722365226 200 90 0
7.50551638721367 -0.6112054673194062 -2.4109581597335787 200 88 0
7.349541468457753 -0.7285248851235582 -2.3310662335454087 200 93 0
7.336997144398246 -0.8589848883520032 -2.326154757249588 200 94 0
7.366824101399615 -0.9920937438713476 -2.35115851282066 200 92 0
7.216141583407568 -1.1065243602030868 -2.301594355765864 200 96 0
7.126319465029239 -1.2185276378642438 -2.2758694004943205 200 97 0
7.091213602390868 -1.3463352539094966 -2.263900216296463 200 98 0
7.204894334655124 -1.500713703583887 -2.302164513306994 200 95 0
7.067494913576336 -1.6019857672041067 -2.247167347628586 200 99 0
7.058447015184792 -1.7332731186712789 -2.2609880406407368 200 98 0
7.010438748475897 -1.8566450390808877 -2.2763608573167886 200 97 0
7.007983353347381 -1.9864902131411464 -2.2527818807644127 200 99 0
6.2420430762968095 -1.775534861273603 -2.13171359006251 200 107 0
6.606716085042953 -1.7533045436067904 -2.251603126441804 200 99 0
6.6371891658312245 -1.6320513446960816 -2.2607895070634774 200 98 0
6.67811647814443 -1.5170099724615242 -2.271049547629493 200 98 0
6.702312914998505 -1.3979187780453348 -2.2761919249994027 200 97 0
6.724751714616584 -1.2836022691875926 -2.2921927670459494 200 96 0
6.797930791377522 -1.1677307123998777 -2.304221078577197 200 95 0
6.844036370135142 -1.0508718999205993 -2.3185122005770564 200 94 0
6.9024388982656095 -0.9346460664159607 -2.3375461121105174 200 93 0
6.826905393983138 -0.8092210963563541 -2.308999430232881 200 95 0
6.838597599155528 -0.6795371105827464 -2.316196581071024 200 95 0
6.930795189421361 -0.5685550954059272 -2.3474563480034463 200 92 0
6.959602233418532 -0.44237542305219935 -2.3598214228358807 200 91 0
6.9129706474969606 -0.3160667385869779 -2.346198852101938 200 92 0
6.9030318023246755 -0.19261657638450377 -2.3455952401461055 200 92 0
6.9622266484469 -0.07031301179476682 -2.3690920910821904 200 91 0
7.02503597049772 0.054108495575973754 -2.3944749516166732 200 89 0
6.969450557126713 0.17780679418597656 -2.3801020809426334 200 90 0
6.965652335195727 0.3019065398951749 -2.3839740427175062 200 90 0
6.958085502377691 0.42585609442063854 -2.3871499698272403 200 90 0
6.850479168597395 0.5419156949867842 -2.356507719091992 200 92 0
6.817585836420441 0.6617364238489967 -2.3520393509443984 200 92 0
6.909390940927735 0.7951696237445263 -2.3912681269359437 200 89 0
6.980596551333521 0.9297073347262738 -2.424178396749447 200 87 0
7.054449804818576 1.0675764597500674 -2.445054368287679 200 86 0
6.931056002729172 1.1759346810064555 -2.425313835988685 200 87 0
6.964367311855203 1.3097485777701368 -2.447172862425504 200 85 0
6.973934361223425 1.440765962399952 -2.4614284728459928 200 84 0
7.0571360571143185 1.5896970551034564 -2.502517753058382 200 82 0
7.075365405066634 1.7225624315592343 -2.5244632883381395 200 80 0
6.946863569467117 1.827501224268276 -2.4886241645753895 200 83 0
7.022827175712263 1.8457850254817356 -2.6585005905180292 200 71 0
6.409174543712511 1.5626570720815405 -2.413625841612796 200 88 0
6.5465816859366655 1.4685111172119107 -2.45582012533159 200 85 0
6.572468124277582 1.355772135015109 -2.4515003229189447 200 85 0
6.40658314485822 1.1985464937978296 -2.3812365527648613 200 90 0
6.465359978459036 1.0904340760208457 -2.3929659347330334 200 89 0
6.519391561885572 0.9801827697396253 -2.4034283452436758 200 88 0
6.592647050966124 0.8711571596376241 -2.421452967662138 200 87 0
6.613899786671928 0.7541265560543229 -2.4209009974211404 200 87 0
6.582361871235693 0.631808129742664 -2.4146856468893865 200 88 0
6.475609595401315 0.5051094648364937 -2.355795255636406 200 92 0
6.45211686356432 0.38763118423728465 -2.3409517730862652 200 93 0
6.482255744522067 0.28171679600512334 -2.3451986588473193 200 93 0
6.516348647870218 0.15864523170199693 -2.3533631253714775 200 92 0
6.4842538105154635 0.04191218994859644 -2.3500392122578324 200 92 0
6.474106280166594 -0.06990500296031378 -2.3553448417734035 200 92 0
6.519761741444841 -0.18994949547409695 -2.3427454565021066 200 93 0
6.489926316734281 -0.30485990370704974 -2.329274746025367 200 94 0
6.3957216892590685 -0.4146953297651293 -2.293334312090611 200 96 0
6.399821468728074 -0.5288457421515483 -2.2806535268241466 200 97 0
6.295192643305625 -0.6338680262277683 -2.254808894118711 200 99 0
6.38246941885378 -0.7575978954137141 -2.2856850409146503 200 97 0
6.2370457844553355 -0.8531020644187689 -2.2338014326014655 200 100 0
6.222357355644731 -0.9641087410848928 -2.229309183136699 200 101 0
6.498208718886187 -1.1254922408674723 -2.3295456963834513 200 94 0
6.260645656175923 -1.1993217891960344 -2.2463234192264405 200 99 0
6.229317510436929 -1.308465932733081 -2.237605565563511 200 100 0
6.225473894162881 -1.4235578743979387 -2.2393437724780183 200 100 0
6.18235328684367 -1.5296948206418735 -2.2275322674104414 200 101 0
6.242111497130794 -1.6611831238963046 -2.24108257238989 200 100 0
6.269294812153808 -1.7895468380326256 -2.268231397540556 200 98 0
6.071747826053434 -1.7392980567155636 -2.3215312655057785 200 94 0
5.755887424481531 -1.5387351634614241 -2.1956193074899653 200 103 0
5.8536761006036855 -1.450052320507568 -2.2308573188377263 200 100 0
5.857933987509031 -1.3449243469675396 -2.225963698922442 200 101 0
5.876829345519921 -1.2357972184440604 -2.2319244988399176 200 100 0
5.8989420373431845 -1.131253467127081 -2.2373467753520906 200 100 0
5.893852153995199 -1.0218855372002937 -2.2330431558093586 200 100 0
5.90410867555568 -0.9157179630669428 -2.235146118119505 200 100 0
5.916954771904716 -0.8100928181158832 -2.2388121522966293 200 100 0
5.930373352690325 -0.7045612918868133 -2.2432756258817808 200 100 0
5.939480801702394 -0.6031809830768596 -2.257503769180267 200 99 0
5.876063613534582 -0.4865260297587607 -2.223243304737942 200 101 0
5.941561857525341 -0.38544119330637133 -2.2491518111729545 200 99 0
5.9601990123507536 -0.280026785657936 -2.257916035304942 200 99 0
6.047007971434212 -0.17608230669650649 -2.293123148607492 200 96 0
6.062064063725235 -0.06831430309599952 -2.3017485816838468 200 96 0
6.061121644670371 0.03986838928658031 -2.304896746069991 200 95 0
6.065301507591824 0.1481930395197224 -2.3105880820782945 200 95 0
6.0978327665940695 0.25798517295159284 -2.327704794682703 200 94 0
6.154601748133684 0.37058886160826365 -2.3547529015847273 200 92 0
6.098340661076928 0.4766527890696337 -2.3269792564885403 200 94 0
6.14659795365212 0.5910733377825608 -2.36428262175277 200 91 0
6.035052661911531 0.6893813544094732 -2.3284803641317424 200 94 0
6.024984127112727 0.7975484419113194 -2.3323114802368283 200 93 0
6.066929253270703 0.9137197081098316 -2.356956083769883 200 92 0
6.043893886270035 1.0210616573182931 -2.3570282547016927 200 92 0
6.006718217376824 1.1214874458251356 -2.3541102471825734 200 92 0
6.034422379843294 1.2428742276699913 -2.373330140507241 200 91 0
6.069706790910567 1.3637334006954938 -2.3982868832151096 200 89 0
5.986315095600356 1.4579455938369597 -2.376956337756059 200 90 0
5.945875299009037 1.5612760422339527 -2.373143950244165 200 91 0
6.00152062563671 1.5743965493086534 -2.520483026243613 200 80 0
5.628839987540083 1.3693479753996765 -2.3518187338607905 200 92 0
5.625798204240103 1.258241749679728 -2.3413138778326443 200 93 0
5.706471125640981 1.1693742265829659 -2.3638054425923576 200 91 0
5.673750171685124 1.0571646752071409 -2.3399164790216758 200 93 0
5.711193939571214 0.9627563632065971 -2.343953408178208 200 93 0
5.730198896558063 0.8607679596874985 -2.3428399786285405 200 93 0
5.6079449304941695 0.7364626837217537 -2.3088744036932987 200 95 0
5.7954074545837715 0.6553694619564322 -2.354584760353677 200 92 0
5.80553817654508 0.5515074468219091 -2.3514362476532504 200 92 0
3.2921840757964014 0.2557344088875998 -1.3292389112509104 200 163 0
5.78692160146535 0.34146094411452366 -2.3312970729055777 200 93 0
5.808445046185099 0.24267818904773147 -2.334156507607896 200 93 0
5.817764870612203 0.13509558142409325 -2.321766192826111 200 94 0
5.7832877643736955 0.03472506584749474 -2.3154997072440753 200 95 0
5.771839294222511 -0.06848663115693232 -2.307554918744462 200 95 0
5.769362644951314 -0.17559435183971267 -2.3035011145303073 200 95 0
5.706447035962119 -0.27574937771128494 -2.276063388056443 200 97 0
5.697454447343743 -0.37396397416444654 -2.282942050615858 200 97 0
5.695230356219509 -0.47945149947977456 -2.268730501677624 200 98 0
5.687239667065747 -0.58113966259239 -2.2650038194042637 200 98 0
5.6437782426194945 -0.6786168066340392 -2.2477427939799157 200 99 0
5.601818713275275 -0.775134588443941 -2.231665215348569 200 100 0
5.634730151551987 -0.882320359343143 -2.2460073447519053 200 99 0
5.635218159032317 -0.9777245548775236 -2.251457873223918 200 99 0
5.480300133592487 -1.0594204822153854 -2.188597481861085 200 103 0
5.58455831244207 -1.179208016939824 -2.235313165468998 200 100 0
5.47790001507907 -1.2589682118392755 -2.1963623622651482 200 103 0
5.4562674729283245 -1.3566756368452675 -2.192025009039552 200 103 0
5.434645818237693 -1.4582614524944635 -2.185733427589075 200 104 0
5.4549583694659125 -1.5682047393225098 -2.1993065936699723 200 103 0
5.322371394713319 -1.5356203349234447 -2.258263344631669 200 99 0
5.033654085461804 -1.3557412072928603 -2.130278051513882 200 107 0
5.163202448604989 -1.2886699445352252 -2.182366408000963 200 104 0
5.192983646113775 -1.1982272020828733 -2.190391842429918 200 103 0
5.214341236273259 -1.1056465142275702 -2.1954401260969743 200 103 0
0.0 0.0 0.0 200 255 0
5.233955516085456 -0.8201244610428201 -2.1954247001520812 200 103 0
5.32970049986516 -0.7387366908403088 -2.2449482674091543 200 99 0
5.331589146961712 -0.6452742604692685 -2.2326660087832018 200 100 0
5.351123800932443 -0.5462801377820117 -2.2305931247448934 200 100 0
5.35471883268965 -0.450816339318567 -2.2432664712517334 200 100 0
5.362290713595958 -0.35453150740072387 -2.2362232006538885 200 100 0
5.365952352305724 -0.25906114709135647 -2.2501284485229673 200 99 0
5.406806359010869 -0.16815059634966634 -2.2689482967019954 200 98 0
5.395296280986858 -0.06728226199380025 -2.266975495586658 200 98 0
5.4032116531124466 0.0293014877939741 -2.273469081488227 200 97 0
5.386865599747064 0.12564598773151953 -2.2703459000840986 200 98 0
5.437992286030048 0.22429197924234093 -2.2962893644149545 200 96 0
5.469296629147402 0.319725348200682 -2.3151037501837433 200 95 0
5.4656531889304 0.4218970199214965 -2.3186488593394876 200 94 0
5.452776211356812 0.5193113040609653 -2.3194439524023305 200 94 0
5.401253082517623 0.6122358953669083 -2.3043500508859656 200 95 0
5.387395891142484 0.7048636447949207 -2.3182201350060567 200 94 0
5.363271308777998 0.8035253913910749 -2.3035863829751557 200 95 0
5.368572404670847 0.902607309903956 -2.303479068694705 200 95 0
5.390362677905742 1.006359297698367 -2.3333425926290583 200 93 0
5.312669211577834 1.0907875408750933 -2.309631015773867 200 95 0
5.289237120751335 1.1852153493014033 -2.3099951658491586 200 95 0
5.2464771410861415 1.2748774460308177 -2.3024702529375976 200 95 0
5.2689884215629545 1.3809017514215538 -2.3242503686901763 200 94 0
5.229366640241429 1.369180541325814 -2.418991944423301 200 87 0
4.985725215594503 1.2061089026473915 -2.2966265324470707 200 96 0
4.9783294725111675 1.110044479377189 -2.282004767070153 200 97 0
4.954470855144575 1.0116637853097517 -2.2605919426149708 200 98 0
5.023502635457952 0.9316549556551267 -2.2716061003506445 200 98 0
4.996446313424191 0.8345731793557107 -2.260628161677614 200 98 0
5.109991511038403 0.7595064490337016 -2.303229558900215 200 95 0
5.122857842240261 0.6676696086872448 -2.300889823923102 200 96 0
5.0979833182809315 0.5715884251933299 -2.2822595927532765 200 97 0
5.08754965387386 0.4821241052694318 -2.2699387891496356 200 98 0
5.100522158000173 0.3911457302744622 -2.2590398720335436 200 98 0
5.0695482009849 0.29746893676458586 -2.250505372033336 200 99 0
5.185834766203533 0.20706715468387119 -2.2975958328404644 200 96 0
5.10649396690654 0.11227360722979794 -2.258068015598008 200 99 0
5.108886251799971 0.024691121734248516 -2.255311236764618 200 99 0
5.121669732722964 -0.06701383541303453 -2.25793126218951 200 99 0
5.086656202034771 -0.1577127449194625 -2.2400873782937962 200 100 0
5.10649396690654 -0.2538373247443213 -2.2465625160484097 200 99 0
5.103597801706588 -0.3409173577394223 -2.2338771415652325 200 100 0
5.103864805665171 -0.4372440396489618 -2.243230379449218 200 100 0
5.011834181427547 -0.5198157136915672 -2.202591785073621 200 102 0
5.039238039255902 -0.6100487313088169 -2.216104288869285 200 101 0
5.043414276759802 -0.7061246212707092 -2.217868709416924 200 101 0
5.036531790614294 -0.7971628281233324 -2.2164365449049046 200 101 0
4.940510683028785 -0.8726916297697586 -2.1763371062885124 200 104 0
4.910099859826187 -0.9552445424105259 -2.177613048897752 200 104 0
4.94839310425848 -1.0498764344489078 -2.1896144793355687 200 103 0
4.8879222666587925 -1.13614276665874 -2.1631571114623647 200 105 0
4.860905115075869 -1.2216315053334355 -2.155725846995863 200 106 0
4.8406837264951506 -1.3074252736062066 -2.1417483451565356 200 107 0
4.815057966505102 -1.3943285356640822 -2.1462231276893413 200 106 0
4.736378586005814 -1.3766190436520407 -2.214263186407639 200 102 0
4.758387145292263 -1.2914187513303959 -2.2184032420255773 200 101 0
4.591608203942762 -1.15485449097684 -2.1373706501578384 200 107 0
4.629411000836357 -1.076832833190764 -2.1501031893138696 200 106 0
4.644449647313935 -0.9894502223243202 -2.1545600226282438 200 106 0
4.656083353324257 -0.9137507046532701 -2.1628686082705983 200 105 0
4.67451941007691 -0.8261079238834731 -2.160038905416092 200 105 0
4.7728792267477 -0.7557151599129737 -2.202978693487067 200 102 0
4.6930749454026675 -0.6572278436141653 -2.164271981154866 200 105 0
4.7761408941323396 -0.5818955410894137 -2.2012757547969755 200 102 0
4.829878171560644 -0.5001974319407285 -2.2151107843541173 200 101 0
4.832788472484145 -0.4138051732791973 -2.2265572682488406 200 101 0
4.833719041093907 -0.3233678334456334 -2.2382790344501005 200 100 0
4.850307634316131 -0.24063930576956388 -2.2362024812197556 200 100 0
4.850949240152449 -0.15354684151902578 -2.2381831911002967 200 100 0
4.872132505033973 -0.0667858730606347 -2.2502504106323147 200 99 0
4.822540245799875 0.020417765634957365 -2.230212003933026 200 100 0
4.765392776734957 0.10571100781170331 -2.2072074452279566 200 102 0
4.8419847307650095 0.19450645715944412 -2.2365123552446065 200 100 0
4.820745211783757 0.28032744943299204 -2.241579479777233 200 100 0
4.819198776781875 0.367180124436585 -2.2461384788304604 200 99 0
4.856208119720504 0.45787081419537384 -2.269327004966166 200 98 0
4.887910435800681 0.5498184786224894 -2.3011465342641797 200 96 0
4.7897750107092225 0.6259422859676246 -2.2518631755555414 200 99 0
4.803856773387572 0.7118658739277925 -2.2674918386436054 200 98 0
4.785453788087364 0.8012702485932719 -2.2659421971443963 200 98 0
4.793635682223366 0.8910495553103368 -2.2686438517528864 200 98 0
4.7602161009859625 0.9736396850961054 -2.26246602748416 200 98 0
4.677346744336326 1.0452215776374905 -2.243218263318878 200 100 0
4.68401809380386 1.1316089672404728 -2.2592441329300827 200 98 0
4.699101666015814 1.2283474163044956 -2.2660358155389946 200 98 0
4.675942677911835 1.2218317543466992 -2.3684779177676045 200 91 0
4.507859128941165 1.0915373140524653 -2.271749441653488 200 98 0
4.466489792353638 0.9966936496668333 -2.2401191360091914 200 100 0
4.481920068973509 0.9118043852596491 -2.2393216625473378 200 100 0
4.4891268965369475 0.8293593117534327 -2.233303214701582 200 100 0
4.550609767629137 0.7601721127770937 -2.2534875774484093 200 99 0
4.550248210089542 0.6722252018517962 -2.246211909988065 200 99 0
4.5804356626792 0.5923896281839627 -2.2433904761491315 200 100 0
4.5271524063649435 0.5069605383933409 -2.219098452537884 200 101 0
4.522985728196792 0.4242471810939052 -2.2107327454629173 200 102 0
4.5748372382008915 0.34232747292932775 -2.230905160523024 200 100 0
4.550585990870333 0.2621787354239157 -2.2133530808224386 200 102 0
4.57877628668941 0.18127934145439653 -2.2225156752681396 200 101 0
4.538905070893122 0.09419539242532984 -2.199422002587621 200 103 0
4.539236913520841 0.02028726886026735 -2.196071817963152 200 103 0
4.538957086024158 -0.06126615075867351 -2.193362095050038 200 103 0
4.585506055898775 -0.15202660986556465 -2.213336422961599 200 102 0
4.535665952180992 -0.22812828366017973 -2.1880065942360325 200 103 0
4.5450781570359675 -0.31096612815124985 -2.201392446515876 200 102 0
4.618928749826192 -0.398885199878733 -2.226857436242103 200 101 0
4.5652399015764145 -0.48006499462910074 -2.190563838829248 200 103 0
4.552349952076459 -0.5620432523994641 -2.1948672616497085 200 103 0
4.541804541560789 -0.6435638501782892 -2.191078738202141 200 103 0
4.518612145530723 -0.7230645489991672 -2.181780487639138 200 104 0
4.507935204150599 -0.8005847633171911 -2.1805168359643674 200 104 0
4.469871141478899 -0.8804234053117973 -2.1637927017053413 200 105 0
4.444077513068819 -0.9582394065083809 -2.1549755236778303 200 106 0
4.426121594280741 -1.033778540371101 -2.152346712802076 200 106 0
4.441857125693813 -1.1253499007032128 -2.163098538187838 200 105 0
4.340186949359087 -1.1825052535916039 -2.119012699311006 200 108 0
4.392107284129891 -1.2775843859138512 -2.152728710628043 200 106 0
4.339778567695477 -1.2669987608558053 -2.224754776005851 200 101 0
4.155358088764002 -1.1366129353719696 -2.121847079619238 200 108 0
4.1733288954953105 -1.0579575850632914 -2.1272462288674845 200 108 0
4.226287202093518 -0.9912147888755657 -2.1490435471937057 200 106 0
4.273205667718686 -0.9218040806878922 -2.168285647280831 200 105 0
4.302485308898984 -0.84774373531095 -2.17912848771004 200 104 0
4.310725533839034 -0.7684633194463252 -2.1704506233899257 200 105 0
4.318118887467382 -0.6910348885062824 -2.1808615147607533 200 104 0
4.328697997471832 -0.6133031925483089 -2.184028216551561 200 104 0
4.325762064071331 -0.5262721238148415 -2.18282996514542 200 104 0
4.345164169672919 -0.45725097371373435 -2.189793078267554 200 103 0
4.3841647763946225 -0.37802920449273425 -2.209740696093385 200 102 0
4.261969527636555 -0.2942006622850625 -2.1477337534732905 200 106 0
4.259605147668727 -0.21679209357191 -2.1380379262582774 200 107 0
4.262679284150335 -0.14024203802571578 -2.1409788255015467 200 107 0
4.3284164094198925 -0.06486347630652527 -2.18547811842307 200 104 0
4.290745810842757 0.012685650018270623 -2.1784503370558967 200 104 0
4.355942850554254 0.0914929821990506 -2.205228595160512 200 102 0
4.28247005029333 0.163317724644237 -2.172086266509151 200 104 0
4.381760835594017 0.25006359875723433 -2.2266158483741663 200 101 0
4.398065067548091 0.3305534164547637 -2.239999774661437 200 100 0
4.290969936181061 0.40035650905107156 -2.1910383000875946 200 103 0
4.302214383442161 0.47974366923952466 -2.202995517636834 200 102 0
4.305306002725475 0.558816484451802 -2.2114242468601364 200 102 0
4.326721447842528 0.6449951303887659 -2.2288191839075306 200 101 0
4.274193357635598 0.7123004580112243 -2.2109347251922054 200 102 0
4.271629388397848 0.7912963909940793 -2.218319363792233 200 101 0
4.277067563619973 0.8723755585132132 -2.230528623698577 200 100 0
4.268576250238197 0.9511599523659925 -2.23614194113825 200 100 0
4.269075941104378 1.0331759333300996 -2.256627951141093 200 99 0
4.301451192328329 1.1228217679466077 -2.2757026513678027 200 97 0
4.222454259374874 1.1010471381717462 -2.3307452964686606 200 94 0
4.052994691644979 0.9789847611568308 -2.225898721173164 200 101 0
4.064778325781842 0.9005415857745972 -2.2233115064121667 200 101 0
4.04789944905572 0.8198136984097331 -2.19492140183519 200 103 0
4.088795150309787 0.7515339801165246 -2.207655160013306 200 102 0
4.092182376139405 0.6803146106314406 -2.208709016818522 200 102 0
4.088579612801098 0.5998906188925504 -2.190642007529285 200 103 0
4.1331758682707616 0.5345953881459219 -2.215305182794766 200 101 0
4.143327915897505 0.4561736550151046 -2.2147296489220993 200 102 0
4.1730939117217645 0.3871107583975015 -2.214279220126418 200 102 0
4.1132965581819985 0.3031553086799351 -2.1867585996783685 200 103 0
4.092652785533746 0.22750554947851162 -2.170774353086785 200 105 0
4.065181025680458 0.1562723732453672 -2.1515591053484537 200 106 0
4.126631927941635 0.08417990308850067 -2.1803776450901147 200 104 0
4.1253034909299195 0.006000298645246366 -2.176586684269108 200 104 0
4.127804128455261 -0.06865009180932377 -2.184481341646634 200 104 0
4.136712794583843 -0.143052013222008 -2.1779217655001895 200 104 0
4.108244193558347 -0.21239139886250546 -2.161871268087753 200 105 0
4.1133550008329065 -0.2897518353790957 -2.1450380232101636 200 106 0
4.117528756922575 -0.3612436614065564 -2.156749589778382 200 106 0
4.131463772467119 -0.44117426553666395 -2.1637581944893802 200 105 0
4.113302892215273 -0.5110162931919695 -2.1652525545501167 200 105 0
4.128405545114432 -0.5884019952330655 -2.174888729814506 200 104 0
4.097884756890764 -0.6593577158067796 -2.161089579783399 200 105 0
4.088579612801099 -0.7325071971668535 -2.149933572435665 200 106 0
4.072590890839677 -0.8062292393866074 -2.1541118098668366 200 106 0
4.0802824370738175 -0.8868206356808146 -2.1516207109613044 200 106 0
4.0764476071254565 -0.9601073232999993 -2.165012490519823 200 105 0
4.07072073233464 -1.036104311623285 -2.1673517169062726 200 105 0
4.015178746251655 -1.0989216450723798 -2.1437305366207764 200 106 0
3.944803843863839 -1.1559751919824461 -2.1126474454953983 200 109 0
3.909812750164259 -1.1538642691197523 -2.1831426882138807 200 104 0
3.8343082173865373 -1.0535356249388506 -2.1362201176533224 200 107 0
3.8814816437665365 -0.9882120040116571 -2.1580795569743674 200 105 0
3.8519695193992396 -0.9111211461192226 -2.1345016956455143 200 107 0
3.9316287925865505 -0.8557314195661715 -2.1737275967498046 200 104 0
3.9174134880954914 -0.780179146236678 -2.170554782322925 200 105 0
3.919400854795757 -0.7075337761404908 -2.168015234043956 200 105 0
3.9337924640289725 -0.6364430339435433 -2.163981116944786 200 105 0
3.888351555313999 -0.5575238329456175 -2.1366085083573036 200 107 0
3.8924198540493085 -0.48680367117678186 -2.137070957065199 200 107 0
3.938543652846546 -0.42071844477170084 -2.161207700534834 200 105 0
3.9370509866934964 -0.3489798787507313 -2.1598054038275967 200 105 0
3.9320276189674455 -0.27724721868742647 -2.1570666061592267 200 106 0
3.9253126271864653 -0.20576211763854707 -2.153996186114401 200 106 0
3.9388175077685124 -0.13532282508114607 -2.1626198518251654 200 105 0
3.955735984386004 -0.06451471407299743 -2.1737270949918637 200 104 0
3.9652778100117794 0.006873358716670244 -2.1813952269976506 200 104 0
3.902455400920443 0.07720205519121537 -2.149816014569878 200 106 0
3.902537849358863 0.1477151988286211 -2.1534397238735323 200 106 0
3.9374880386002804 0.22029984074612824 -2.1769421411803624 200 104 0
3.923966799204744 0.29072452564170365 -2.1742778246878385 200 104 0
3.9207388183117162 0.36181824850390215 -2.1779106578629923 200 104 0
3.906612442392807 0.4356439200420368 -2.175327184556869 200 104 0
3.8968367107171837 0.5022220759045557 -2.1772690776477295 200 104 0
3.8611448636139025 0.569124465494207 -2.1733691644458166 200 104 0
3.869307980976609 0.6416698067350012 -2.176951365436395 200 104 0
3.871106485500182 0.714144091886723 -2.1864677459184523 200 103 0
3.8251596539398998 0.7774786512119195 -2.169573738958894 200 105 0
3.8430055195970594 0.8537974082969095 -2.189465624743173 200 103 0
3.807295877433749 0.9184732869989163 -2.1794782248844293 200 104 0
3.795502112052067 0.9886585853534431 -2.183743741608712 200 104 0
3.8027621822780664 0.9894705381854985 -2.2784926331016875 200 97 0
3.674543591637709 0.8853028903548151 -2.1905784956224816 200 103 0
3.683578998217667 0.8171285782250436 -2.185551374490577 200 104 0
3.694449424970096 0.7495582860634732 -2.1822464256201033 200 104 0
3.704040872060118 0.6818679384990718 -2.178808973396967 200 104 0
3.6899735513628698 0.6103815267736787 -2.1621270989504584 200 105 0
3.724265488865865 0.5469472811364587 -2.174390408850291 200 104 0
3.711128690249385 0.4727663011489106 -2.1603888258611827 200 105 0
3.722400013624473 0.4094104370198874 -2.1509131067125207 200 106 0
3.7495259316907013 0.3402662182440234 -2.1699411140168965 200 105 0
3.735234616709582 0.2746052664577204 -2.1470833043382624 200 106 0
3.7238153737023447 0.20619991864924261 -2.144468481029067 200 106 0
3.7210805893083 0.13860652562003428 -2.138808340859118 200 107 0
3.717248104820062 0.07120301680203409 -2.1331248481066334 200 107 0
3.726711654879355 0.004209810799499727 -2.1270363228867097 200 108 0
