ply
format ascii 1.0
comment Created by hansol
element vertex 700
property double x
property double y
property double z
property uchar red
property uchar green
property uchar blue
end_header
12.057985865898486 -2.2519955926107253 -1.799704850428033 200 177 0
12.723326517225455 -2.1461321454638727 -1.9089189087738074 200 170 0
12.76498084659766 -1.9202214173673844 -1.928757969336341 200 168 0
13.08724074936285 -1.73449411506094 -1.9878405325969857 200 164 0
13.407242826644799 -1.5416010767183537 -2.0447215134688466 200 161 0
13.43869038940653 -1.303107710044797 -2.063524451925491 200 159 0
14.01976638403933 -1.1151730750515751 -2.162952590705756 200 153 0
14.037496186073321 -0.8688677893626926 -2.1786325988070967 200 152 0
9.554568258037827 -0.4231108516293059 -1.4919312215144267 200 197 0
9.53684217069788 -0.25457880034880237 -1.4984468244190345 200 197 0
9.510944875760877 -0.0840887158194278 -1.5040368705951734 200 197 0
9.507611075944467 0.0724934278775173 -1.513525054795141 200 196 0
9.512932668380673 0.2468571872397543 -1.541006679402741 200 194 0
9.534718831455104 0.41616810815311345 -1.537822005581817 200 194 0
15.485647477140496 0.9490131319590613 -2.51485031942289 200 129 0
15.228023210885807 1.2024212032300523 -2.490404936701244 200 131 0
15.194632916584839 1.4691959749983505 -2.5027657116248694 200 130 0
15.16524029548467 1.7362178460349222 -2.5161908634517163 200 129 0
15.208849872523253 2.012999870915644 -2.542240658305788 200 127 0
21.976867719587364 3.3034471700921912 -3.7014748466211107 200 50 0
21.912372820992942 3.695899211258053 -3.71276721382206 200 49 0
21.84096759159665 4.074185652676177 -3.7363789984893367 200 48 0
21.767892047277833 4.45870438666774 -3.7538693504660405 200 46 0
21.68204602583038 4.847219258956631 -3.7613110944686223 200 46 0
21.589947124374554 5.221129732748914 -3.785174200815088 200 44 0
21.49409901929938 5.600702822932465 -3.8005305416151876 200 43 0
22.814271618445844 5.928204509672891 -4.457702087541319 200 0 0
20.580276867173705 4.9616542594931765 -3.9886324523234875 200 31 0
20.66831382393533 4.598530205928586 -3.9739661775719717 200 32 0
20.976061094821503 4.280055741554602 -4.001897125801855 200 30 0
19.525304546089863 3.6265079898471075 -3.6969017219852534 200 50 0
19.576148229941168 3.279905794258062 -3.679082068962804 200 51 0
19.207551836002807 2.870938401289595 -3.583680594481849 200 58 0
18.473585501486276 2.4291169844877083 -3.422357650063661 200 69 0
18.516401218905038 2.1034734170227076 -3.4065800995148727 200 70 0
15.312201937671057 1.4715640038036826 -2.7954991133412865 200 110 0
15.193544880257095 1.185612811661149 -2.7580749667908337 200 113 0
15.205841612910724 0.9174534414721194 -2.7425401703172034 200 114 0
15.235676548824276 0.6502426585969333 -2.73066054180059 200 115 0
16.1726269933102 0.40517377034518454 -2.8808275184534327 200 105 0
9.579429165302097 0.07133802194072073 -1.6961873256174047 200 184 0
9.51984110604311 -0.09662725420970213 -1.6758214043971862 200 185 0
9.494650227609238 -0.2634676499497727 -1.6619075223338218 200 186 0
9.489787534973786 -0.4304640001832265 -1.651885497122115 200 187 0
9.49253624442242 -0.5951231037336878 -1.6445301547034807 200 187 0
9.600416526396142 -0.7715392535074815 -1.6548371370007795 200 187 0
13.69285944100498 -1.347121365021454 -2.3463721181397097 200 140 0
13.669695597947996 -1.5877813931758373 -2.3308732841846402 200 141 0
13.642336832344768 -1.8279832877550148 -2.3151070412699415 200 143 0
12.598582964005118 -1.9138864188777405 -2.1281001467777214 200 155 0
12.257594172260767 -2.082850508777713 -2.0612442519612513 200 159 0
11.943747723747858 -2.2458616796337747 -1.9997919585347725 200 164 0
11.849885329658981 -2.4442157956413695 -1.9758084366329798 200 165 0
11.629770638822068 -2.6089124108314947 -1.9358811742980366 200 168 0
11.257944214857059 -2.7369935738872235 -1.8623628517736557 200 173 0
10.785958940775613 -2.8233960219104417 -1.7776784499348854 200 178 0
10.6773838187264 -2.9958810164277954 -1.7535472542840564 200 180 0
10.536833111934882 -2.9680970530691253 -1.9321560663660198 200 168 0
10.487803783686307 -2.759977417951794 -1.9232512205355068 200 169 0
10.590184729499503 -2.5891060350795634 -1.9476902793283302 200 167 0
10.631606826008367 -2.398857209563042 -1.9655534781072954 200 166 0
10.877285811398007 -2.2543131430732437 -2.0171969760355144 200 162 0
10.900371334270224 -2.0600920471459307 -2.0280940245230337 200 162 0
11.458455221903494 -1.9576967725594288 -2.1392838437998125 200 154 0
11.690334031805541 -1.786447788937782 -2.19048724310563 200 151 0
11.958491204993754 -1.6128183440768828 -2.24924659588407 200 147 0
12.205956169769292 -1.4281201032654285 -2.3049119727920284 200 143 0
12.426344483374738 -1.2368559708618103 -2.3541005453985306 200 140 0
12.996243124703245 -1.0500749845570934 -2.4786378477726467 200 132 0
13.073080067281301 -0.8336565939555167 -2.5007648185718576 200 130 0
9.63382727412359 -0.44297413244064243 -1.7811109960754576 200 178 0
9.509426518555609 -0.27397033568955714 -1.8359005292644472 200 175 0
9.476726991722092 -0.10603806789597088 -1.8390346006866827 200 174 0
9.473602630608857 0.06413684493988914 -1.848124839517631 200 174 0
9.469734713509032 0.22694070315891166 -1.8747855378713976 200 172 0
9.465685558531044 0.39475940045104113 -1.8673940030888896 200 172 0
15.656868963427426 0.9297349989654479 -3.1068575335476334 200 90 0
15.217742058249934 1.1733053859053293 -3.0379042792649917 200 94 0
15.126756014608715 1.4351217379382446 -3.038453277869531 200 94 0
15.117876531495169 1.6932420811265778 -3.0619514501653575 200 93 0
15.974968979723759 2.086654025455728 -3.250434919347413 200 80 0
16.0220801833755 2.3811777775026717 -3.281962648997303 200 78 0
16.480949305611436 2.7535612139774677 -3.3944927628063692 200 70 0
16.452495732780278 3.042457858592695 -3.4175061011700074 200 69 0
7.402486770327911 1.5045943933527044 -1.5488403166924145 200 194 0
15.553123567219933 3.4541990320700218 -3.272510112991927 200 79 0
15.478463793190333 3.7200860543441228 -3.287802517057596 200 78 0
16.888639832194293 4.376163876768647 -3.615534089465266 200 56 0
15.935482988802974 4.117509481507438 -3.7113684798558317 200 49 0
13.870661446606658 3.3232161935830553 -3.206098871576965 200 83 0
13.963136124145905 3.085134360930671 -3.203781346093486 200 83 0
14.604001699458665 2.9567309497929104 -3.3269013049300407 200 75 0
14.641984075399323 2.6957104730380257 -3.3124012123089415 200 76 0
14.232895462795629 2.360947450277604 -3.1981362763583565 200 84 0
14.547837569959475 2.1552816580570555 -3.243731650817998 200 81 0
14.583311119365613 1.89208441599726 -3.234704587520718 200 81 0
14.616904644873083 1.634334475646367 -3.2221538858970518 200 82 0
14.65387909450628 1.3768006114142703 -3.2109843848890165 200 83 0
15.163628887066341 1.1606554102793736 -3.301409825198385 200 77 0
13.896799371192406 0.8118754366469754 -3.010470860545843 200 96 0
14.924432144107492 0.6077665888932322 -3.2155537546985817 200 82 0
14.940712644741966 0.35003762036029273 -3.201590002105204 200 83 0
9.553173917024928 0.051636859014322134 -2.037149811836562 200 161 0
9.463088963299203 -0.11578668153032054 -2.008106313685861 200 163 0
9.461633384205491 -0.28270370857701327 -1.9983799853994084 200 164 0
9.447296122886161 -0.4490841955884534 -1.9863569270835464 200 164 0
9.474899652977463 -0.6144608107347356 -1.9846194794163294 200 165 0
9.608806946047439 -0.7968917692722237 -2.0032443364843577 200 163 0
12.1243162433182 -1.220876527018002 -2.5176705776941772 200 129 0
12.153876200701506 -1.4422042029093747 -2.5364031570576624 200 128 0
11.923269521996419 -1.6264177782322253 -2.457720392249989 200 133 0
11.497077988028336 -1.7748883790923677 -2.361802984788777 200 139 0
11.261941441914233 -1.9420083565633306 -2.3060574043013253 200 143 0
11.228765953402641 -2.136274207466699 -2.2960335198376822 200 144 0
11.099591799042393 -2.318593178257738 -2.2595008250424473 200 146 0
10.648049761429345 -2.4203242918720886 -2.1618476265219013 200 153 0
10.13686103040391 -2.4886219593558754 -2.05736406201973 200 160 0
8.009993642874235 -2.1191644207443336 -1.6186058318706518 200 189 0
9.808216534623567 -2.7800671147937686 -1.9779052902450023 200 165 0
9.664058864974441 -2.749457256041342 -2.13647932157335 200 154 0
9.330434533696737 -2.4781079587927906 -2.0654912531809924 200 159 0
9.400627617458536 -2.3242189370796122 -2.0802182314354383 200 158 0
9.677702723261694 -2.212879464936075 -2.145644277096611 200 154 0
10.052381188150878 -2.1131795606243893 -2.233461663577336 200 148 0
10.1375150145482 -1.945448195770458 -2.2576410027688776 200 146 0
10.216194096308994 -1.7706916766039245 -2.2840406263783537 200 145 0
10.669806543075945 -1.6604677131452128 -2.3887636544740203 200 138 0
10.748009580321213 -1.470782938797941 -2.418511496409369 200 136 0
11.036307049186746 -1.3211791547707306 -2.4858959043109987 200 131 0
11.15680041615502 -1.1321043282793892 -2.523425155215472 200 129 0
11.405775964997712 -0.9589929913676235 -2.586849661033335 200 124 0
11.585940999682638 -0.7639998874398639 -2.638879907056158 200 121 0
12.11613145044943 -0.5892686035475472 -2.7691022802170626 200 112 0
9.50293158269227 -0.2941677314240803 -2.180842965565975 200 151 0
9.448369081215946 -0.121765005081903 -2.1779266743074515 200 152 0
9.44691393260566 0.04131335970716509 -2.187231118617949 200 151 0
9.45997941047427 0.21237831128395568 -2.200232725485884 200 150 0
9.484218297509626 0.3768486475697599 -2.2170918388755236 200 149 0
12.300960304074373 0.706744699884577 -2.89026469666215 200 104 0
13.091829978958678 0.9901076892447167 -3.0907145089343477 200 91 0
11.322444653480526 1.053320823747833 -2.689235451039837 200 118 0
12.202126455207983 1.3532995449896636 -2.9147318148749486 200 102 0
12.182487244285673 1.5698289644515468 -2.927254926579821 200 102 0
11.530373983754755 1.9029421589678055 -2.8051420328344245 200 110 0
11.594458404312455 2.130061495856876 -2.835440428669987 200 108 0
11.92287792060153 2.4043606914599542 -2.9392517339953654 200 101 0
11.595176733736588 2.557911628514208 -2.8738766247223397 200 105 0
11.40805438656185 2.7295232715973667 -2.847419237319184 200 107 0
11.356082956080195 2.9258739230303705 -2.8601468792975893 200 106 0
11.140768512264001 2.8673731466039474 -3.0138829778678375 200 96 0
10.154243463890074 2.422098394126089 -2.7276816539357207 200 115 0
10.190436766274892 2.235598094376297 -2.7226708418341596 200 115 0
10.102263795410945 2.029059827150161 -2.6810298088187308 200 118 0
10.110092168273848 1.849320374592395 -2.6624918612317368 200 119 0
10.143362103715875 1.6654201946747627 -2.657727722711663 200 120 0
10.360065358612047 1.5128702378803494 -2.6980758715466897 200 117 0
10.235382376401574 1.3098081338213658 -2.650032820820046 200 120 0
10.071060525627027 1.107767608597307 -2.592803445018469 200 124 0
10.765641855728822 0.9914802807557984 -2.7565925881515514 200 113 0
10.638993562973866 0.7900717619389818 -2.7099544254446823 200 116 0
10.641508650958192 0.6010246942707055 -2.69701581538907 200 117 0
10.48597007287598 0.4062017377170097 -2.6448281189946843 200 121 0
10.562621446091011 0.22671626606550516 -2.6515167755983566 200 120 0
10.249302509597317 0.0386309445328356 -2.5618727148097324 200 126 0
9.479401127425975 -0.13605143514498672 -2.3595610677306365 200 140 0
9.434282770436461 -0.30228103952578195 -2.338969846019593 200 141 0
9.432439278637665 -0.4692001871972082 -2.329669564369044 200 142 0
9.434466217480951 -0.6365527481044058 -2.321835917994936 200 142 0
9.424274306251338 -0.7952043540432155 -2.314298614233168 200 143 0
10.298282092109762 -1.061201113104837 -2.5178838950349554 200 129 0
10.288105923058128 -1.2440024022631073 -2.5079560161812755 200 130 0
10.311996370220498 -1.4275137121715944 -2.5093640055044486 200 130 0
10.203678121689947 -1.6007412226261708 -2.4742370171693624 200 132 0
10.030464952936018 -1.7517309228471076 -2.3895189498858205 200 138 0
9.720610556142667 -1.8781725669593174 -2.346639792241061 200 140 0
9.681581419036934 -2.0481819420597263 -2.3327782510944357 200 141 0
9.618361649694313 -2.2124536120405853 -2.3136474667196567 200 143 0
9.283030268593482 -2.3081035796883818 -2.229720903567728 200 148 0
9.183013830285995 -2.4555979681949744 -2.2029646777406136 200 150 0
9.137938986581473 -2.6127927034655567 -2.1944937927074477 200 151 0
8.900251453945549 -2.5576228949060553 -2.308704483902723 200 143 0
8.420302931902867 -2.2637618101904162 -2.181289756476973 200 151 0
8.7018129145561 -2.17190570077266 -2.2598956694980163 200 146 0
8.730925805787923 -2.016399281390842 -2.2695942813271768 200 146 0
8.763055111100728 -1.8599779178190052 -2.264276322588986 200 146 0
8.913326626109656 -1.7299170815157259 -2.322983804800359 200 142 0
8.939763211773672 -1.5759732534296442 -2.3309226567804595 200 141 0
8.884535993238542 -1.4009975724362513 -2.3235520538340837 200 142 0
9.348623925944038 -1.3054444435207615 -2.449999980846418 200 134 0
9.549998181763776 -1.1619801559818808 -2.508523321680082 200 130 0
9.370668857865999 -0.9767651047916558 -2.4659117028559 200 132 0
9.65920401564069 -0.8345600014249258 -2.5490973850075576 200 127 0
9.358585113169752 -0.642115596244821 -2.477348800757911 200 132 0
9.81459954822134 -0.49918176896727157 -2.606602324786847 200 123 0
9.659022348738207 -0.3155623235708062 -2.574822202894499 200 125 0
9.446078433028685 -0.14569852920498186 -2.5268721110609924 200 128 0
9.433996381388361 0.02596372794467541 -2.5335198935043985 200 128 0
9.43097768353395 0.18860623515778954 -2.5432510121386422 200 127 0
9.621434203411013 0.3630386286455357 -2.605925346886183 200 123 0
9.590021810854214 0.5367571588519308 -2.6083695730784893 200 123 0
9.439658564719922 0.6964270222022935 -2.57948557550847 200 125 0
9.413118172419539 0.858060469052806 -2.5863291869972564 200 124 0
9.466055702784733 1.03251390586199 -2.614465457025251 200 123 0
9.449766010893118 1.2053602101119243 -2.622076555565852 200 122 0
9.31186782321752 1.3516308128405836 -2.600530835946016 200 123 0
9.275676307029384 1.5195562845450397 -2.6030246551489715 200 123 0
9.566365418408452 1.742185841059706 -2.7007162784509555 200 117 0
9.344490655733273 1.873884012956788 -2.654512757720058 200 120 0
9.306671281615394 2.034332056216217 -2.664399883839958 200 119 0
9.291226616943142 2.214422863940889 -2.705316833988786 200 116 0
9.159689414788355 2.346285265253379 -2.658699623626008 200 120 0
9.108172271310515 2.331106839489113 -2.8169974918372453 200 109 0
8.511318918265488 2.0130111650896114 -2.618173500897255 200 122 0
8.568586588565234 1.8661325753202382 -2.6183920801875042 200 122 0
8.555417790142899 1.7043694392503081 -2.5977250933568765 200 124 0
8.222100423132925 1.4863852020704502 -2.481205284329242 200 131 0
8.497968879498965 1.380638535332731 -2.5493150781771563 200 127 0
8.523206557956406 1.2296049425118614 -2.542374257610251 200 127 0
8.748724748055256 1.1037646756929298 -2.595423131872331 200 124 0
8.633309660320542 0.933666784427112 -2.5478031192919 200 127 0
8.686507498769515 0.7835755993755912 -2.5506828818738176 200 127 0
8.589019575523606 0.6212301261325476 -2.5100055580929745 200 130 0
8.609251124255097 0.47359734349646604 -2.503630802603583 200 130 0
8.730128849124188 0.32496094423961025 -2.5280426860336935 200 128 0
8.393542214177364 0.16338091972220528 -2.4208303562813467 200 135 0
8.52468859406308 0.01043530272565443 -2.4493631087913106 200 134 0
8.53042854209583 -0.14080512267221296 -2.442005005241817 200 134 0
8.443955095156559 -0.2891246124484595 -2.408899472675465 200 136 0
8.794140472579592 -0.45720338200960814 -2.500687116777413 200 130 0
8.792523937989348 -0.6134075781106328 -2.4926945466704753 200 131 0
8.784151708442048 -0.7692893058911215 -2.4833705657666596 200 131 0
8.593711563741858 -0.9061006872151913 -2.4232918094686076 200 135 0
8.643433499381668 -1.0676437314812914 -2.447890063788703 200 134 0
8.651626239375998 -1.2229054306898102 -2.4287471938697296 200 135 0
8.615096855122525 -1.373456759172899 -2.4139170651744135 200 136 0
8.482104101758043 -1.5063697703582706 -2.3727004618978285 200 139 0
8.39064285170768 -1.6434777494546988 -2.343754183384883 200 141 0
8.376524222957025 -1.7948050266644122 -2.337004267962375 200 141 0
8.229071006792067 -1.9116716592284861 -2.2969927824172203 200 144 0
8.184816522715925 -2.058210337819725 -2.279662497995792 200 145 0
8.082471356225298 -2.1807486288717723 -2.253875851388337 200 147 0
8.049773086880055 -2.328817983987029 -2.2404253362252784 200 148 0
7.991549019767987 -2.323959791202051 -2.3810391436348617 200 138 0
7.739051607581349 -2.0991828885861867 -2.3092987194080137 200 143 0
7.574270473979839 -1.9116134607652442 -2.2602737895260225 200 146 0
7.434228711621843 -1.7372221838152542 -2.2191784059326065 200 149 0
7.722475768683467 -1.6652903393766019 -2.303609577961431 200 143 0
7.678053628424717 -1.5142458749425576 -2.2924473710978583 200 144 0
7.827994302424259 -1.4005292262846536 -2.3399092819030063 200 141 0
7.860615430855052 -1.259218627162374 -2.3551299554824467 200 140 0
7.746319696516242 -1.1047391478678037 -2.3224898244196557 200 142 0
7.343277805454421 -0.914949749215723 -2.2057500466577293 200 150 0
7.9273967409783515 -0.8412983976886305 -2.387666885721778 200 138 0
7.823905266971268 -0.6944910641089177 -2.3605235489891054 200 139 0
7.830775881494547 -0.5554250432931073 -2.36863929611204 200 139 0
7.877637952099189 -0.4153520583181139 -2.4051946643249877 200 137 0
7.971574158470627 -0.27761407603555777 -2.4257312857755355 200 135 0
7.798856545829747 -0.13725277192892818 -2.3803960372522748 200 138 0
7.940307833851516 0.005468752276177312 -2.4319829268366138 200 135 0
7.762393649005777 0.14322255866364192 -2.386051245586441 200 138 0
8.003816929022207 0.28567571646144435 -2.470185699845613 200 132 0
7.817132314120579 0.42244190949070953 -2.421870016462008 200 135 0
7.797155845393493 0.559625534625267 -2.4558455150195106 200 133 0
7.881532517812577 0.7077014930313759 -2.46337829157929 200 133 0
7.93262010406162 0.8504505541840838 -2.4926136282074283 200 131 0
7.914112193264055 0.9955770226065757 -2.497699970870606 200 130 0
7.780966276721465 1.1155626442028597 -2.4704436741974916 200 132 0
7.74066590172268 1.2551522809637985 -2.4691006134824014 200 132 0
7.880228615531893 1.4178677835137823 -2.5304024038531927 200 128 0
7.921958250139162 1.571595000491032 -2.5591297441676635 200 126 0
7.914415032290929 1.7217468047727809 -2.569713874520293 200 126 0
7.860916212384 1.8574813305653126 -2.568722524617973 200 126 0
7.825560396911834 1.9926228195427536 -2.5776930894353125 200 125 0
7.6014776217904485 1.9343135270674308 -2.651614071546418 200 120 0
7.14259249493357 1.6782458121662704 -2.492140623091926 200 131 0
7.319400725946817 1.5821683136495686 -2.523466124260928 200 129 0
7.334252754015303 1.4488459824470963 -2.5131510637774768 200 129 0
7.199920262263614 1.2892611928774698 -2.4526617955980003 200 133 0
7.21655427754406 1.1597769432006506 -2.44451471897403 200 134 0
7.39309527495595 1.0532665644389327 -2.4908441620581163 200 131 0
7.30644139256443 0.9083409055101671 -2.448993153603764 200 134 0
7.285702827034328 0.7741894682125953 -2.4300645307177975 200 135 0
7.443841234785045 0.6571206837664733 -2.4712168497078797 200 132 0
7.3584374475622285 0.5177085870331578 -2.4320304252262117 200 135 0
7.3826782755042775 0.3874872868008783 -2.4297906685483994 200 135 0
7.319759047866434 0.25367652931949 -2.399522356563883 200 137 0
7.3182147753223 0.12335369447287532 -2.3900536664088263 200 138 0
7.300319308300886 -0.006769397797180632 -2.375856058792857 200 138 0
7.351286448355018 -0.13749615455557906 -2.384617059763323 200 138 0
7.300319308300886 -0.26634958996762204 -2.3608887590848795 200 139 0
7.265558910270498 -0.386202737720509 -2.344417796973518 200 141 0
7.276641305914345 -0.5246806223966093 -2.340594110379386 200 141 0
7.316174497877624 -0.6582094320857853 -2.34780968140912 200 140 0
7.436501002727427 -0.8022295422966517 -2.381407306174326 200 138 0
7.294695815929832 -0.918030603321076 -2.331639846636209 200 141 0
7.2909883405372025 -1.0491239755037967 -2.326663478497411 200 142 0
7.134310209782379 -1.151942662619108 -2.2755215188244002 200 145 0
7.215879620071143 -1.3006344134532246 -2.2968682333088077 200 144 0
7.257660106297313 -1.4412191414972095 -2.308085390024061 200 143 0
7.206826481551564 -1.5641177908260897 -2.290418304857959 200 144 0
7.073879388503989 -1.6667493216907474 -2.2472533247370805 200 147 0
7.005217242076356 -1.7818089186397572 -2.225097159400446 200 149 0
6.976959084409369 -1.9064487012442524 -2.2163441461112647 200 149 0
6.931099235907772 -2.0260868715270575 -2.202565670082141 200 150 0
6.880554396680349 -2.017803052127419 -2.328078065088882 200 142 0
6.530319134349097 -1.7903517612237987 -2.2080093782945998 200 150 0
6.565094421416844 -1.6756309401825442 -2.218781726575283 200 149 0
6.688206651672122 -1.5815462753858587 -2.2599750559114393 200 146 0
6.712277818973774 -1.466226776045145 -2.265721909705805 200 146 0
6.825303330090237 -1.3647620397667717 -2.304853452406628 200 143 0
6.92053388061426 -1.252648164122169 -2.3407850551025597 200 141 0
6.751637206164805 -1.0988391328420035 -2.2855582330070123 200 144 0
6.704037167983466 -0.9733349608070024 -2.2702012827868465 200 146 0
6.764368794195442 -0.8598561697836954 -2.2938863688944577 200 144 0
6.771349977118541 -0.7348581136290127 -2.3013638130922156 200 143 0
6.795172383813639 -0.615554259457102 -2.3136521752244166 200 143 0
6.755736922226219 -0.49113621457949286 -2.3049574521882032 200 143 0
6.7497408622153 -0.3742489993617141 -2.307555760846917 200 143 0
6.752885438745956 -0.2500411899559841 -2.315144761024291 200 143 0
6.801115114285885 -0.13072345545892858 -2.338160298274042 200 141 0
6.851771330990616 -0.013847791797495386 -2.362666535183798 200 139 0
6.972461238693881 0.11427067733405173 -2.4121392843724836 200 136 0
6.7246728069584 0.2300814243464192 -2.3345549013730533 200 141 0
6.983052118824006 0.36360044543924963 -2.4333171313792925 200 135 0
6.722091123277706 0.46619631700129177 -2.352519571515931 200 140 0
6.724690665244043 0.5911654891311169 -2.362539572417778 200 139 0
6.753393654705736 0.7111513522983973 -2.384455019224404 200 138 0
6.765585709308347 0.8389519971308977 -2.3987463322562372 200 137 0
6.709154299300622 0.949690484811745 -2.392173777390347 200 137 0
6.713597761479494 1.072951628720994 -2.4064011115112334 200 136 0
6.772956921795101 1.2069068381580674 -2.4411002497880165 200 134 0
6.518013161330733 1.2861889401034754 -2.360547139769687 200 139 0
6.735722787144028 1.4504285695279062 -2.456431865419007 200 133 0
6.555294102707889 1.5395621865292757 -2.4288117240355143 200 135 0
6.578911797314023 1.6691874483898448 -2.427204506278811 200 135 0
6.567628159373792 1.6613547776156437 -2.55671536802478 200 126 0
6.07767021003456 1.4179623103112888 -2.353481190618515 200 140 0
6.119469264425611 1.3126051362103444 -2.3550944966485927 200 140 0
6.194866017720344 1.2131809989826703 -2.3700588022665396 200 139 0
6.159089214294179 1.0961763252220424 -2.3411692963961013 200 141 0
6.212858400638341 0.9873095726058436 -2.350794927563538 200 140 0
6.149198101898931 0.8647343329462583 -2.314746562158927 200 143 0
6.242346651015356 0.7683667647322077 -2.3369751738973044 200 141 0
6.222033332316046 0.6491605867037107 -2.3198728745814026 200 142 0
6.247677021432694 0.5427245295753922 -2.3430004440586583 200 141 0
6.312678309903798 0.43139470726710516 -2.3335653327498793 200 141 0
6.310379306602279 0.31818855850854366 -2.323583322809836 200 142 0
6.435680951760695 0.2094686838965343 -2.36101936620842 200 139 0
6.381805536153117 0.0938215214574587 -2.333224160006242 200 141 0
6.367401077224427 -0.019917607444560333 -2.3205368388963126 200 142 0
6.402689640986865 -0.13414654347938937 -2.3265242371555073 200 142 0
6.397842386176939 -0.2481108088515864 -2.3184788284926774 200 142 0
6.364525940257947 -0.36039541232221595 -2.3007313060331045 200 143 0
6.199960284090531 -0.45798472438102517 -2.2370768600863267 200 148 0
6.28225860441454 -0.5805472436370113 -2.2614898043468896 200 146 0
6.315580045188599 -0.6970693764228151 -2.2695597342368123 200 146 0
6.332790315548389 -0.8131131146842125 -2.2723772336531307 200 145 0
6.243015594269121 -0.9145718257296779 -2.237405601426362 200 148 0
6.242346651015357 -1.0279806924561798 -2.2349711730791255 200 148 0
6.170075553166112 -1.1250191304252337 -2.2094523720594563 200 150 0
6.156425807991419 -1.2395973987434223 -2.2015566424068536 200 150 0
6.200582569381794 -1.363280700943386 -2.2168641570276644 200 149 0
6.212689533284172 -1.4817998885046126 -2.2212849194664392 200 149 0
6.1780366602957555 -1.58966395843065 -2.2095661866774345 200 150 0
6.145737492106193 -1.6978723952049348 -2.199265597357751 200 150 0
6.137701527664588 -1.813101691317639 -2.1982306121617214 200 150 0
6.061257894721247 -1.800049611617971 -2.2955319687151703 200 144 0
4.9782949197403275 -1.3797134218729654 -1.8858342784007376 200 171 0
5.806704879306 -1.4990238578243087 -2.1977607532025436 200 150 0
5.845329664521923 -1.4027915697099893 -2.2086363587088322 200 150 0
5.84845014146353 -1.2904357143255805 -2.211553745674801 200 149 0
5.856516814818586 -1.1836157683745323 -2.2144802822789633 200 149 0
5.784240635783579 -1.0662772507609042 -2.185743164660417 200 151 0
5.845158035480707 -0.9704842812176477 -2.209977151502881 200 150 0
5.868814579505902 -0.863655529417704 -2.222222247635276 200 149 0
5.901549240464936 -0.7654042811050835 -2.235469044481212 200 148 0
5.925736068788408 -0.6576514495559092 -2.248734093652939 200 147 0
5.934060121889067 -0.5557591479316495 -2.254267208938678 200 147 0
5.90548355020368 -0.44715218365451803 -2.247489535665679 200 147 0
5.931169789975147 -0.34293996800833665 -2.2619322516000793 200 146 0
5.933940474119229 -0.237060467116385 -2.2682312921173207 200 146 0
5.91161797666558 -0.1306276016414963 -2.2654946849758297 200 146 0
6.027190643750745 -0.025610870199440104 -2.3162828038068013 200 142 0
5.966157263370888 0.08517700566863994 -2.2997003166569567 200 144 0
5.901381548842736 0.1897229117142393 -2.282075161283951 200 145 0
5.892153575305523 0.29489895620524526 -2.286428494539768 200 144 0
5.883888306968054 0.4080408950548959 -2.2903177572309477 200 144 0
5.847426176013291 0.49877670906936733 -2.2874550488620553 200 144 0
5.823695508053571 0.6018780774663155 -2.287979942950136 200 144 0
5.815395691240209 0.7104334578040183 -2.293893229062205 200 144 0
5.740453453894449 0.8058430849083468 -2.2750452536546772 200 145 0
5.873244205479388 0.9320481620063165 -2.3392782682920465 200 141 0
5.773608593854112 1.0226181887999324 -2.311649440315181 200 143 0
5.7065028568060825 1.1165853941769783 -2.2973499108265307 200 144 0
5.73852012159938 1.226026758120518 -2.325693791618218 200 142 0
5.7343541111006795 1.3331317676994332 -2.3381830079044943 200 141 0
5.65748640756936 1.4227383554767405 -2.3215255932302927 200 142 0
5.694328771222395 1.4273719499952822 -2.455623896608662 200 133 0
5.371178712240802 1.2482226626857975 -2.2996140079432483 200 144 0
5.441674006297695 1.1579290276851544 -2.318042015587313 200 142 0
5.408887425104424 1.0497768360790514 -2.2908923647738426 200 144 0
5.428586126461516 0.9527998440861374 -2.2866804618702155 200 144 0
5.371379768937244 0.8436867163206668 -2.2508145620098787 200 147 0
5.380504405660409 0.758213340657457 -2.239551133758276 200 148 0
5.528542187665691 0.6662028064269468 -2.2944085054561474 200 144 0
5.421392457492046 0.5588091842399805 -2.238990515267404 200 148 0
5.418699402947835 0.45668599515444225 -2.229487502167833 200 148 0
5.431536419416568 0.3599363622967526 -2.2259871831724514 200 148 0
5.516311162037395 0.26647614991676344 -2.2524140350093673 200 147 0
5.612984388693006 0.17055242410490107 -2.2840313949069375 200 145 0
5.534153785055508 0.06913060459426737 -2.2447982298781826 200 147 0
5.608217293510599 -0.02228550008272479 -2.268272978557631 200 146 0
5.609091446587237 -0.13045275191226552 -2.262462239097133 200 146 0
5.580406112803557 -0.22955133229659738 -2.24543046252284 200 147 0
5.581873989313416 -0.3295001133874791 -2.2411355252871163 200 147 0
5.586318939870883 -0.42989017761525034 -2.2386061259698575 200 148 0
5.5730058629684 -0.5289775380431591 -2.2295400659251725 200 148 0
5.552709277472587 -0.6270840156941169 -2.218272786906693 200 149 0
5.44626680105376 -0.7097279356963389 -2.1744642096461027 200 152 0
5.5456075899170605 -0.8272064585247232 -2.2108596390610753 200 149 0
5.532581171115925 -0.9261766422497563 -2.2042406452936327 200 150 0
5.442392428294471 -1.0108853131372062 -2.1674717138007815 200 152 0
5.467129380261784 -1.1163490096669941 -2.1770552101620924 200 152 0
5.462065030695362 -1.2167679482774325 -2.1753474597175497 200 152 0
5.490468070352434 -1.3258283061779956 -2.187555732084923 200 151 0
5.464697133035362 -1.4226781407295785 -2.178770045710494 200 152 0
5.393833568389911 -1.5030923544270434 -2.1551967080925847 200 153 0
5.325647963204098 -1.5900778646980123 -2.127977470796493 200 155 0
5.34085380753059 -1.6032507922347854 -2.2470005571393434 200 147 0
4.323476357295913 -1.2114955793908635 -1.818535987826376 200 176 0
4.2124835362788895 -1.1001085696165784 -1.76972418236161 200 179 0
5.148379760307845 -1.2472489362286665 -2.160912109441056 200 153 0
5.0952636300827265 -1.1388817482645766 -2.1372316564719913 200 154 0
5.138285764161284 -1.0566587116800559 -2.1526248774108634 200 153 0
5.1958646539565985 -0.9762753326873792 -2.1749795085358 200 152 0
5.198838845705688 -0.873737215093825 -2.17996789548416 200 152 0
5.224707430914003 -0.7826346824664477 -2.1917434555970825 200 151 0
5.195640540300255 -0.6838148186780681 -2.181046333699664 200 151 0
5.1893757239959735 -0.592833687192365 -2.179449465927386 200 152 0
5.249023441244629 -0.5049443232955648 -2.20732863516876 200 150 0
5.23684387937024 -0.40956120443838273 -2.2056006467448803 200 150 0
5.190430581537236 -0.3089422007174945 -2.1905264058802976 200 151 0
5.235014489603136 -0.2177735182538717 -2.2137167814317484 200 149 0
5.29179830152739 -0.12538822449013604 -2.242732701217658 200 147 0
5.2673191676244215 -0.030531561028503792 -2.2379209593186107 200 148 0
5.244154509430926 0.06349165099762479 -2.234200673947816 200 148 0
5.208991749419051 0.15252594685288956 -2.226154314062905 200 148 0
5.221844507287234 0.25051786426615363 -2.238649088490125 200 148 0
5.1936852274772765 0.34258644685503803 -2.234404344409389 200 148 0
5.197161763490854 0.4324449305128106 -2.2558283170894025 200 146 0
5.2041542598538655 0.527408455624979 -2.2573362998410644 200 146 0
5.21843234495765 0.6276499399309278 -2.2723084856604534 200 145 0
5.184867057036543 0.7182958063001519 -2.2679651442446875 200 146 0
5.131670684522044 0.8012066063101672 -2.2568989697418895 200 146 0
5.128960397423482 0.8987761689582039 -2.2233034542712278 200 149 0
5.113283920233033 0.9917940776947337 -2.2708880352267395 200 145 0
5.1105168692571254 1.0869924902903687 -2.28239067976775 200 145 0
5.077181904792228 1.1717964965824372 -2.2828846480379785 200 145 0
5.086958927591762 1.2749435545768013 -2.2992899429253257 200 144 0
5.022675478604903 1.250662062925206 -2.380475431711211 200 138 0
5.046013260101634 1.1602572593441869 -2.3768973707372387 200 138 0
4.82057500276531 1.0172982137675615 -2.257426294916306 200 146 0
4.845391438283163 0.931674123991618 -2.2563910335969424 200 146 0
4.882180189202017 0.8478667239891937 -2.261450470055711 200 146 0
4.902466866690712 0.7607388437149301 -2.259393058470133 200 146 0
4.886428783261977 0.6684385639070131 -2.241236917951962 200 147 0
4.848971919923883 0.5785324696184734 -2.2130028154945567 200 149 0
4.891334733192855 0.49069134394331393 -2.223845044700797 200 149 0
4.940298373030899 0.4060800125358918 -2.2371288672866156 200 148 0
4.904419336842553 0.31456272781288025 -2.212579810690628 200 149 0
4.9516153993236465 0.22841925294302645 -2.226097936314994 200 148 0
4.925923191223239 0.14220118635968312 -2.2174748582040253 200 149 0
4.916184639107639 0.05023651821450529 -2.196514494930497 200 150 0
4.8878917964678 -0.03767379891297442 -2.17795917337728 200 152 0
4.889386643848964 -0.1253108532559907 -2.1732854959732317 200 152 0
4.9298169797798685 -0.21091405108588412 -2.186821357342349 200 151 0
4.97224126829372 -0.30581240943815624 -2.200997496616134 200 150 0
4.986326189857262 -0.38861850740550613 -2.2049012662805283 200 150 0
4.938675479070711 -0.48150521728952894 -2.1793809667308377 200 152 0
4.928624761059566 -0.5695829972191061 -2.172430807632188 200 152 0
4.9954388759808435 -0.667890329316855 -2.19991221514502 200 150 0
4.99223466013278 -0.7583695207580006 -2.1971151558701307 200 150 0
4.962748296901245 -0.8408862979689589 -2.1848119863026767 200 151 0
4.879934351120599 -0.9166370651875874 -2.148301475463224 200 154 0
4.869102681205475 -1.0047345928605296 -2.1440596931491993 200 154 0
4.852960068735698 -1.0955758223387728 -2.136149966356184 200 154 0
4.871468817743106 -1.1912195547577378 -2.1458402946443518 200 154 0
4.805897924997771 -1.2624512945350235 -2.1212754897535038 200 155 0
4.772951775848083 -1.344927802501183 -2.1095837886862836 200 156 0
4.366938270680603 -1.318059550111664 -1.9309947494554591 200 168 0
4.237225003606545 -1.285970196191145 -1.9660266868279348 200 166 0
4.506652994907651 -1.277066868810299 -2.089699932066075 200 158 0
4.570678286951911 -1.2077815195621737 -2.1162277661420146 200 156 0
4.602189689717184 -1.1288457027710226 -2.1282449575169333 200 155 0
4.62578098588205 -1.0476304030656196 -2.1371723489753154 200 154 0
4.663583535974859 -0.9728861588345129 -2.1515451226810103 200 153 0
4.641723703559544 -0.8822568312716953 -2.1408100764635547 200 154 0
4.686038215183895 -0.8043217188427982 -2.1611820164978925 200 153 0
4.701165805249427 -0.7207568648965209 -2.1686791955607543 200 152 0
4.7549430646837845 -0.6384457427389885 -2.195720821323612 200 150 0
4.763162812699066 -0.5530374570871642 -2.2010715642112335 200 150 0
4.712846606336284 -0.4657058732408917 -2.1791297608847215 200 152 0
4.75313474661514 -0.380079192873943 -2.201295867816074 200 150 0
4.711752449146228 -0.2919400712611424 -2.1854071160213033 200 151 0
4.657783571738831 -0.20865334349972944 -2.163826238653705 200 153 0
4.653527963318383 -0.12113131086491478 -2.16659222285644 200 152 0
4.6680232469125915 -0.037722742351262314 -2.1783153860249715 200 152 0
4.682949902504901 0.04623133303934404 -2.1908548478789593 200 151 0
4.646974555869322 0.12937874963996224 -2.180138935078384 200 152 0
4.641879531352609 0.20896186601421185 -2.184812695624396 200 151 0
4.674150293588318 0.29470190073785396 -2.2074898827966885 200 150 0
4.674645610632891 0.38313111138108 -2.215153578531868 200 149 0
4.66114401952598 0.46274518354342214 -2.218103382249022 200 149 0
4.666889328753772 0.5483610483039948 -2.2202010187969723 200 149 0
4.637249494252442 0.6336276262764314 -2.2247763930954405 200 149 0
4.603541225035922 0.7098873466369514 -2.220150477890972 200 149 0
4.656280445306092 0.8081668013298313 -2.2554048607486004 200 147 0
4.6196430329750715 0.8840049851400623 -2.2508571532046187 200 147 0
4.569972336177805 0.9642119305540079 -2.237323767260091 200 148 0
4.541623026530611 1.0442117884892437 -2.2362489207749277 200 148 0
4.521724021888287 1.1259884943630138 -2.2398950467467302 200 148 0
4.495622145393847 1.1238912078419776 -2.322920368583461 200 142 0
4.322966118081152 0.9902608883622179 -2.224148662950039 200 149 0
4.375091320996608 0.9153575171341746 -2.239798363417142 200 148 0
4.4013454380180255 0.8381043794271202 -2.240944342107362 200 147 0
4.408738278737248 0.7572328487881788 -2.2330752992931218 200 148 0
4.403451165018985 0.6746905308502185 -2.219444735710712 200 149 0
4.414670757936675 0.5989224688751856 -2.2137319203768273 200 149 0
4.465424850847281 0.5200516275888935 -2.2304415383680616 200 148 0
4.432296023844319 0.4353344783299449 -2.204805229264262 200 150 0
4.410990639188816 0.3530974363543333 -2.1857822470293424 200 151 0
4.438054386358009 0.27490231723156505 -2.1913315175274493 200 151 0
4.451684556274448 0.19918447334251727 -2.1904399825164873 200 151 0
4.426780047178771 0.11450242391275414 -2.171889603275917 200 152 0
4.394323774628277 0.038352196008910794 -2.1498996517972615 200 154 0
4.405287732593329 -0.04075423936867012 -2.1499682544252154 200 154 0
4.4530751023892226 -0.12123927635597691 -2.1685233271398974 200 152 0
4.439077091999605 -0.20444726198229857 -2.1571814894329746 200 153 0
4.4504631875538045 -0.28507725832475833 -2.158972084815935 200 153 0
4.494004779657926 -0.36889256653418706 -2.1768991076224755 200 152 0
4.411340212408425 -0.4381024367817677 -2.135059705318393 200 155 0
4.457245860199803 -0.5281153967835501 -2.1641039437632994 200 153 0
4.523689640222492 -0.6173654286857821 -2.1851513737970927 200 151 0
4.419006716921031 -0.6838070279317089 -2.1337405522598134 200 155 0
4.415329519751793 -0.7642942089104932 -2.1317008313162233 200 155 0
4.438985701003224 -0.8465895392643296 -2.144923527377405 200 154 0
4.436629003255752 -0.9322876518879962 -2.1432162703766116 200 154 0
4.362355569082353 -0.994581665845863 -2.1105590749513383 200 156 0
4.423134276820095 -1.0955144452311638 -2.1403071343872653 200 154 0
4.322586024720947 -1.152725422492106 -2.0943071215147864 200 157 0
4.366444976728359 -1.2481041168218907 -2.118849232195611 200 156 0
4.360500235861406 -1.3307705165050645 -2.1198727238807202 200 156 0
4.328849488281806 -1.3285713021963974 -2.2020897899001546 200 150 0
4.180799670030989 -1.2020879016190416 -2.1225859124779602 200 155 0
4.20888504132115 -1.1256225304423626 -2.135226975734335 200 155 0
4.204202940454511 -1.048077418655897 -2.1279265024848115 200 155 0
4.2196266674698775 -0.9685454308401786 -2.1350715153305 200 155 0
4.233724977741833 -0.8962001234807863 -2.138751502984379 200 154 0
4.219398780184859 -0.8146585751956825 -2.130365766631324 200 155 0
4.165357824238231 -0.7245876262596544 -2.112952724963044 200 156 0
4.228239202630323 -0.6567018451148194 -2.1354561039653515 200 155 0
4.212373775674476 -0.5771569666961808 -2.1279255766600538 200 155 0
4.234409733928996 -0.49928578080034314 -2.1410004960994184 200 154 0
4.241031172234923 -0.4268124766489722 -2.1451249254783376 200 154 0
4.234844948610284 -0.3532769011554831 -2.1436128037357722 200 154 0
4.219650923397902 -0.275813117577289 -2.1388545179229768 200 154 0
4.2481867947143845 -0.20109827329559166 -2.1568528929187214 200 153 0
4.183008329107131 -0.12268904275881315 -2.1278150312955533 200 155 0
4.188320554600974 -0.04745862238225866 -2.135153524004437 200 155 0
4.12374976604795 0.031189606162134266 -2.1073211158926233 200 156 0
4.253084784194474 0.10880876650508861 -2.179171053585534 200 152 0
4.1620195474368 0.17785739083793992 -2.139044750648825 200 154 0
4.2242033429625145 0.2606994631721476 -2.1775982336524047 200 152 0
4.236826718404229 0.33831507922911297 -2.1916483922797108 200 151 0
4.2707673916743865 0.4187420366022752 -2.2174307391647976 200 149 0
4.249637116642857 0.49044980528675786 -2.216131811365373 200 149 0
4.160634740797745 0.5603433940401827 -2.1781299305648427 200 152 0
4.1770671567354265 0.6358145902305351 -2.19777354042044 200 150 0
4.182663715196944 0.717928354169746 -2.2009178730370693 200 150 0
4.163878405290638 0.7889136245891238 -2.2128571415461837 200 149 0
4.177569319646817 0.870149531795745 -2.232192646673059 200 148 0
4.115328920715158 0.9391364428557173 -2.209865103581148 200 150 0
4.097499512650921 1.0096580593692948 -2.2151292415965464 200 149 0
4.0419867437556425 0.996334307013556 -2.276365348965643 200 145 0
3.901945481266971 0.8831898588125751 -2.186156017879531 200 151 0
3.9337440855151167 0.8194649963195019 -2.1901270007654605 200 151 0
3.947599529010073 0.7441023219451403 -2.1875009721221375 200 151 0
3.9368109037208456 0.6684019543622112 -2.1704549628475207 200 152 0
4.000913785545731 0.6049160736141029 -2.1952169994133657 200 151 0
4.022761956069057 0.5338908555693064 -2.1972261806975903 200 150 0
4.022160491735729 0.4637065513680458 -2.186761023280448 200 151 0
4.027858621188974 0.3906677414550065 -2.1812797811147697 200 151 0
3.9917992986777757 0.3144292524011116 -2.15386942369079 200 153 0
3.9982028674597943 0.23857020144239685 -2.1504611830070335 200 154 0
4.0267749474604875 0.16735853344953 -2.1589750007321085 200 153 0
4.046291491963805 0.09505311123875008 -2.163156653621081 200 153 0
4.027503819701879 0.021940457564248485 -2.1474557244815657 200 154 0
4.009894105889976 -0.050450150570937755 -2.133022475703479 200 155 0
4.060411095280347 -0.12427836693019706 -2.1553789260446554 200 153 0
4.0546525117656795 -0.19347487562100046 -2.1487416995385233 200 154 0
4.050975458639738 -0.2664420949555204 -2.1435879393050983 200 154 0
4.017988964967371 -0.3406507061303156 -2.122941870097566 200 155 0
4.013564032517265 -0.4093382728173821 -2.1191758646442325 200 156 0
4.051235496066254 -0.49057893655119345 -2.1367602164082684 200 154 0
4.000930033651767 -0.5538231378565758 -2.1102130716583956 200 156 0
3.9889885065258537 -0.6299456575991983 -2.11146858211922 200 156 0
4.017615282556959 -0.7074737749630428 -2.1178152089132567 200 156 0
3.976734731920045 -0.7702767142923098 -2.0983770550975445 200 157 0
3.9446828477973215 -0.8412275509817904 -2.0814703643729335 200 158 0
3.9331728466028393 -0.9089670822421554 -2.0789147871296456 200 158 0
3.935344459529314 -0.9838873381083233 -2.08271882422041 200 158 0
3.0533514774289814 -0.8244172163499806 -1.6170329058705029 200 189 0
3.0156843393823585 -0.8666729726629097 -1.6029903847682998 200 190 0
3.8985276066872396 -1.199721393867509 -2.0747705335757156 200 159 0
3.8707401147601397 -1.1979313100530318 -2.1505197930689426 200 154 0
3.766276663071794 -1.0959522113406475 -2.0858436201351087 200 158 0
3.749775587120381 -1.0188704677225364 -2.072752280480921 200 159 0
3.773877985703773 -0.9496857845390931 -2.0843788090615405 200 158 0
3.771176142770527 -0.8787917336719607 -2.0886444764555416 200 158 0
3.8250815466303942 -0.8181819252277566 -2.10745242861096 200 156 0
3.824996049645739 -0.7504154067924634 -2.1044058609125273 200 157 0
3.783378318385482 -0.6720453943601129 -2.080548383933909 200 158 0
3.873785425625757 -0.6129073457350626 -2.1309536155799984 200 155 0
3.8457542301010874 -0.5415548209638239 -2.114677561130877 200 156 0
3.832927713291439 -0.4659992315922376 -2.1092344466269988 200 156 0
3.837415020882019 -0.4003374029981242 -2.1122636864912887 200 156 0
3.842088902843031 -0.33475460593556183 -2.1162166775770754 200 156 0
3.844242665737055 -0.26161048870512554 -2.1205286815146653 200 156 0
3.8408124287427654 -0.18822280500887162 -2.122092003870165 200 155 0
3.84141721572694 -0.12257294382752204 -2.125801509586005 200 155 0
3.8353031920903486 -0.05313842219627442 -2.126703404997526 200 155 0
3.8160976454244806 0.019732622280334858 -2.12087062175034 200 155 0
3.855716959999765 0.08904343413881964 -2.1658949377121086 200 152 0
3.831395341064785 0.15466370478004532 -2.1409151708768777 200 154 0
3.826306750357372 0.22384426778655142 -2.1447174186705134 200 154 0
3.834100692939251 0.2940171482643945 -2.156353747168869 200 153 0
3.810343347746684 0.3654675127312801 -2.1501928354035136 200 154 0
3.7947205743689243 0.4334963279230071 -2.149677309769642 200 154 0
3.782253357260822 0.5016965226520971 -2.151513927597968 200 153 0
3.79830804192653 0.5741206173913437 -2.1702230174160513 200 152 0
3.7911120704395045 0.6398173358598434 -2.1774400786476544 200 152 0
3.79533504578649 0.7154687133168162 -2.189628393241567 200 151 0
3.757353471481273 0.7792504052054517 -2.179162707632168 200 152 0
3.737367908241121 0.8424318980906528 -2.181114821720482 200 151 0
3.718769349441797 0.9096129531419641 -2.1830916634737507 200 151 0
3.7026551884319026 0.9061736944288272 -2.2605408713632054 200 146 0
3.5607865613688774 0.7992226647348261 -2.162742380994317 200 153 0
3.6009844855918134 0.7396351796311551 -2.1750191943012935 200 152 0
3.6561649308163857 0.6818623566488378 -2.196725284429918 200 150 0
3.616628889488664 0.6066278496664695 -2.1621513679030495 200 153 0
3.62817223580709 0.5447043191107637 -2.1579166786650177 200 153 0
3.6437823733321597 0.47575172985572745 -2.1585758145900575 200 153 0
3.6495248619252454 0.4092409291794329 -2.1530302236786807 200 153 0
3.6617432565358516 0.3434391139549574 -2.1518966304681197 200 153 0
3.669291628882146 0.28085545362405123 -2.1481136763181388 200 154 0
3.6464400090353686 0.20897961685119737 -2.1281500464598038 200 155 0
3.645064833749454 0.14270484112816145 -2.1208870422730315 200 155 0
3.652036203546243 0.07679178713242583 -2.11907139790441 200 156 0
3.671449384186501 0.0107564041902064 -2.125030853687884 200 155 0
3.6731870759778085 -0.055662101159958004 -2.1213228998349245 200 155 0
3.670995084101857 -0.12200407693945486 -2.1159355632226022 200 156 0
3.6597657988561814 -0.187836749642656 -2.1059390335444803 200 156 0
3.644792624319231 -0.2530791759477271 -2.0943937897181004 200 157 0
3.6419180828781177 -0.3189567598566562 -2.0903939707497994 200 158 0
3.651457259517239 -0.38620392397550957 -2.0940953681780523 200 157 0
3.646267486324873 -0.45217676741720736 -2.0899278909039456 200 158 0
3.698225049531847 -0.5226420177643631 -2.120005871284879 200 156 0
3.645415753807875 -0.5858718597800897 -2.0888060120095346 200 158 0
3.6329789775383174 -0.6510269431288372 -2.0822413304141687 200 158 0
3.6149693211050984 -0.7150004656810824 -2.0730655444401123 200 159 0
3.59458751959367 -0.7782150163002962 -2.063107111224754 200 159 0
3.621386382096574 -0.8522387060581489 -2.0808318407458626 200 158 0
3.5942060761027017 -0.914071582719189 -2.0681439781049225 200 159 0
3.617676786199277 -0.9892886230458537 -2.0852146486409757 200 158 0
3.6020007289187257 -1.0545719091233847 -2.080352440659232 200 158 0
3.4815886775651936 -1.087215475394515 -2.015454943756502 200 163 0
3.5188745529943053 -1.105404100393173 -2.1226716691761567 200 155 0
3.4393079714372368 -1.0124425091790419 -2.087939667043933 200 158 0
3.4515231530037727 -0.9463780176594976 -2.0743230539069306 200 159 0
3.4092833888049956 -0.8694139082146704 -2.0451284534281022 200 161 0
3.446842616087823 -0.817040009012695 -2.063003173432701 200 159 0
3.4442578043376946 -0.7514184713747172 -2.058947475807909 200 160 0
3.4585185246854633 -0.6861021880624751 -2.066756493141698 200 159 0
3.4977576393519545 -0.6360350136966099 -2.0865482974776794 200 158 0
3.429555659525469 -0.5565537643832313 -2.046224016467326 200 160 0
3.5060137260787925 -0.5007136308695045 -2.092572238277231 200 157 0
3.529461857311403 -0.4429954125162789 -2.106129927680975 200 156 0
3.498839760136107 -0.3715648451247304 -2.08953601039995 200 158 0
3.542859258179757 -0.3153874868116969 -2.116796593887231 200 156 0
3.5219315023378517 -0.24584231707118495 -2.1069337929743566 200 156 0
3.5198301228024738 -0.18551952962381107 -2.1080387593069734 200 156 0
3.501271273177918 -0.11743594386087534 -2.100495741654475 200 157 0
3.534142555977736 -0.058237768961404424 -2.1239930429014016 200 155 0
3.505141635760574 0.009407485251668603 -2.11109470476313 200 156 0
3.488763269893182 0.07260613855166362 -2.106233606532961 200 156 0
3.513289296313787 0.13318193470589398 -2.1269141267749783 200 155 0
3.480966868681952 0.1989553568793084 -2.113298567431396 200 156 0
3.50908199946801 0.2645676829409672 -2.1372139111826973 200 154 0
3.4646830462469618 0.32462833141487507 -2.117543408171759 200 156 0
3.4539741513623947 0.38709107624480954 -2.1189637609954683 200 156 0
