ply
format ascii 1.0
comment Created by Open3D
element vertex 1343
property double x
property double y
property double z
property uchar red
property uchar green
property uchar blue
end_header
5.94001 1.11546 -2.36127 200 86 0
5.84597 1.25106 -2.35 200 87 0
5.91043 1.37157 -2.37856 200 85 0
5.95113 1.49547 -2.39985 200 84 0
6.06776 1.61763 -2.44745 200 82 0
6.11736 1.74081 -2.47634 200 80 0
6.01745 1.87525 -2.44891 200 83 0
6.09661 1.86495 -2.618 200 71 0
5.43159 1.751 -2.37007 200 88 0
5.54277 1.62452 -2.40426 200 85 0
5.54093 1.50932 -2.3932 200 85 0
5.34185 1.40053 -2.31766 200 90 0
5.37315 1.28103 -2.32223 200 89 0
5.39933 1.16066 -2.32551 200 88 0
5.44451 1.03646 -2.33602 200 87 0
5.43717 0.917972 -2.32858 200 87 0
5.37727 0.80727 -2.31624 200 88 0
5.24297 0.71332 -2.25256 200 92 0
5.19199 0.605897 -2.23172 200 93 0
5.19596 0.49579 -2.2295 200 93 0
5.1997 0.36788 -2.23017 200 92 0
5.14061 0.262556 -2.22104 200 92 0
5.10407 0.156264 -2.22035 200 92 0
5.11963 0.0297454 -2.20023 200 93 0
5.06311 -0.0737571 -2.18103 200 94 0
4.94517 -0.155689 -2.14095 200 96 0
4.92178 -0.266587 -2.1219 200 97 0
4.79493 -0.34196 -2.09237 200 99 0
4.85029 -0.484508 -2.11462 200 97 0
4.68594 -0.539411 -2.06043 200 100 0
4.64512 -0.643263 -2.0501 200 101 0
4.875 -0.871299 -2.13577 200 94 0
4.62618 -0.881405 -2.05332 200 99 0
4.56962 -0.979239 -2.03921 200 100 0
4.53839 -1.09 -2.03466 200 100 0
4.47107 -1.18193 -2.01785 200 101 0
4.49775 -1.32443 -2.02293 200 100 0
4.49363 -1.45693 -2.04239 200 98 0
4.31415 -1.36426 -2.1023 200 94 0
4.05462 -1.08721 -1.99396 200 103 0
4.17099 -1.0266 -2.0321 200 100 0
4.20022 -0.925412 -2.03294 200 101 0
4.24469 -0.82447 -2.04455 200 100 0
4.29118 -0.728707 -2.0553 200 100 0
4.31235 -0.621217 -2.05715 200 100 0
4.3477 -0.520861 -2.06492 200 100 0
4.38544 -0.421739 -2.07416 200 100 0
4.42373 -0.322891 -2.08419 200 100 0
4.45689 -0.22761 -2.10381 200 99 0
4.42299 -0.097408 -2.07732 200 101 0
4.5109 -0.0165328 -2.10747 200 99 0
4.55425 0.0807072 -2.12168 200 99 0
4.6636 0.158734 -2.16085 200 96 0
4.70403 0.259117 -2.17512 200 96 0
4.72899 0.364034 -2.18426 200 95 0
4.75898 0.46772 -2.19585 200 95 0
4.81691 0.565405 -2.21836 200 94 0
4.89911 0.65946 -2.25046 200 92 0
4.86967 0.777311 -2.22971 200 94 0
4.9441 0.874557 -2.27232 200 91 0
4.85907 0.998531 -2.24422 200 94 0
4.87517 1.10557 -2.25423 200 93 0
4.94382 1.20675 -2.28442 200 92 0
4.94711 1.3163 -2.29088 200 92 0
4.935 1.42269 -2.29426 200 92 0
4.99103 1.53264 -2.31961 200 91 0
5.05433 1.63994 -2.3505 200 89 0
4.99575 1.75239 -2.33607 200 90 0
4.98116 1.86242 -2.33878 200 91 0
5.03922 1.85327 -2.48549 200 80 0
4.62731 1.75314 -2.31317 200 92 0
4.59774 1.64677 -2.29661 200 93 0
4.65497 1.54008 -2.31255 200 91 0
4.59623 1.4405 -2.28314 200 93 0
4.61004 1.33981 -2.28121 200 93 0
4.60411 1.23648 -2.27409 200 93 0
4.45549 1.14709 -2.23573 200 95 0
4.61841 1.02113 -2.27316 200 92 0
4.6034 0.918217 -2.26407 200 92 0
2.08604 1.29007 -1.27718 200 163 0
4.53499 0.720202 -2.23273 200 93 0
4.5323 0.619143 -2.22969 200 93 0
4.51556 0.513351 -2.21119 200 94 0
4.45805 0.424629 -2.20007 200 95 0
4.42222 0.327764 -2.18666 200 95 0
4.39419 0.224757 -2.17675 200 95 0
4.30899 0.144257 -2.14507 200 97 0
4.27682 0.0507845 -2.14668 200 97 0
4.24936 -0.0501189 -2.12671 200 98 0
4.21728 -0.146578 -2.11753 200 98 0
4.15167 -0.229712 -2.09577 200 99 0
4.08776 -0.312342 -2.07522 200 100 0
4.09419 -0.424932 -2.08295 200 99 0
4.07189 -0.517856 -2.08311 200 99 0
3.90156 -0.556469 -2.01892 200 103 0
3.97444 -0.700167 -2.05686 200 100 0
3.85158 -0.7498 -2.01569 200 103 0
3.80719 -0.839114 -2.00639 200 103 0
3.76188 -0.932075 -1.99492 200 104 0
3.7554 -1.04429 -2.00199 200 103 0
3.63481 -0.984555 -2.06527 200 99 0
3.39668 -0.733902 -1.95318 200 107 0
3.53882 -0.702792 -2.00632 200 104 0
3.58941 -0.622678 -2.01874 200 103 0
3.6323 -0.538311 -2.02847 200 103 0
-1.17984 1.90426 -0.00144337 200 255 0
3.7196 -0.266187 -2.04385 200 103 0
3.83232 -0.212994 -2.09589 200 99 0
3.85642 -0.12212 -2.08876 200 100 0
3.89903 -0.0306848 -2.09177 200 100 0
3.92542 0.0602645 -2.10963 200 100 0
3.95574 0.152214 -2.10777 200 100 0
3.9822 0.243082 -2.12686 200 99 0
4.04372 0.32038 -2.14986 200 98 0
4.05664 0.421023 -2.1537 200 98 0
4.08745 0.51239 -2.16536 200 97 0
4.09459 0.609868 -2.16789 200 98 0
4.16797 0.691801 -2.19823 200 96 0
4.22129 0.775759 -2.22167 200 95 0
4.24219 0.87547 -2.23093 200 94 0
4.25298 0.972929 -2.23736 200 94 0
4.22507 1.07617 -2.22845 200 95 0
4.23384 1.16846 -2.24769 200 94 0
4.23391 1.27071 -2.23902 200 95 0
4.26274 1.36551 -2.24428 200 95 0
4.30888 1.45915 -2.2794 200 93 0
4.25347 1.5609 -2.26194 200 95 0
4.25329 1.658 -2.26799 200 95 0
4.23316 1.75555 -2.26628 200 95 0
4.28049 1.8517 -2.29344 200 94 0
4.23979 1.84424 -2.38815 200 87 0
3.9635 1.75136 -2.26182 200 96 0
3.93327 1.66084 -2.24206 200 97 0
3.88645 1.57241 -2.21572 200 98 0
3.93443 1.47775 -2.22092 200 98 0
3.88488 1.39072 -2.20513 200 98 0
3.97745 1.28841 -2.24126 200 95 0
3.96798 1.19645 -2.23359 200 96 0
3.92075 1.11032 -2.21017 200 97 0
3.88916 1.02679 -2.19313 200 98 0
3.87994 0.936143 -2.17697 200 98 0
3.82742 0.853208 -2.16388 200 99 0
3.91901 0.735109 -2.20359 200 96 0
3.81908 0.664427 -2.16046 200 99 0
3.80045 0.579112 -2.15282 200 99 0
3.79096 0.487011 -2.15011 200 99 0
3.73517 0.408469 -2.12798 200 100 0
3.7315 0.310177 -2.12874 200 99 0
3.70779 0.227189 -2.11132 200 100 0
3.68509 0.133197 -2.11532 200 100 0
3.57574 0.0774513 -2.07202 200 102 0
3.58086 -0.0173432 -2.07997 200 101 0
3.56197 -0.111581 -2.07634 200 101 0
3.53351 -0.198113 -2.07002 200 101 0
3.42198 -0.246112 -2.02772 200 104 0
3.37273 -0.31897 -2.02503 200 104 0
3.38736 -0.420536 -2.03102 200 103 0
3.30787 -0.488211 -2.00104 200 105 0
3.26115 -0.564215 -1.98943 200 106 0
3.22093 -0.641752 -1.97114 200 107 0
3.1753 -0.720155 -1.97131 200 106 0
3.10355 -0.688215 -2.04177 200 102 0
3.14531 -0.611104 -2.05018 200 101 0
3.01552 -0.43424 -1.98014 200 107 0
3.07095 -0.368354 -1.99642 200 106 0
3.10647 -0.287486 -2.0054 200 106 0
3.13591 -0.217357 -2.01765 200 105 0
3.17474 -0.13662 -2.0193 200 105 0
3.28733 -0.0943242 -2.06411 200 102 0
3.23315 0.02243 -2.03249 200 105 0
3.33204 0.0735056 -2.07195 200 102 0
3.40383 0.139094 -2.08921 200 101 0
3.42737 0.221484 -2.10536 200 101 0
3.44996 0.308251 -2.12204 200 100 0
3.48583 0.38462 -2.12421 200 100 0
3.50729 0.468782 -2.13099 200 100 0
3.54867 0.547139 -2.14741 200 99 0
3.52123 0.644665 -2.13321 200 100 0
3.48599 0.742312 -2.1161 200 102 0
3.58176 0.808432 -2.14874 200 100 0
3.58168 0.896395 -2.15896 200 100 0
3.60097 0.980696 -2.16835 200 99 0
3.65872 1.05844 -2.19577 200 98 0
3.71168 1.13817 -2.23199 200 96 0
3.63429 1.23823 -2.18895 200 99 0
3.66859 1.31726 -2.20902 200 98 0
3.67208 1.4084 -2.21278 200 98 0
3.7015 1.49333 -2.22028 200 98 0
3.68876 1.58172 -2.21934 200 98 0
3.62528 1.67199 -2.20573 200 100 0
3.65251 1.75321 -2.22637 200 98 0
3.69032 1.843 -2.2382 200 98 0
3.66689 1.83622 -2.34056 200 91 0
3.47196 1.7556 -2.24014 200 98 0
3.40892 1.67536 -2.20414 200 100 0
3.40361 1.58944 -2.19834 200 100 0
3.39087 1.50815 -2.18763 200 100 0
3.43415 1.42525 -2.20274 200 99 0
3.41273 1.3405 -2.19062 200 99 0
3.42295 1.25607 -2.18279 200 100 0
3.35064 1.18737 -2.15488 200 101 0
3.32678 1.10867 -2.14204 200 102 0
3.35766 1.01572 -2.15662 200 100 0
3.31485 0.944823 -2.13515 200 102 0
3.32294 0.859143 -2.13926 200 101 0
3.26327 0.78557 -2.11218 200 103 0
3.24591 0.714037 -2.10475 200 103 0
3.22613 0.635201 -2.09754 200 103 0
3.24975 0.534956 -2.11154 200 102 0
3.18302 0.474536 -2.08303 200 103 0
3.17244 0.391205 -2.09163 200 102 0
3.22328 0.286888 -2.11073 200 101 0
3.15153 0.223103 -2.07107 200 103 0
3.11944 0.14645 -2.07109 200 103 0
3.0897 0.0701544 -2.06301 200 103 0
3.04812 -0.000847256 -2.0498 200 104 0
3.01921 -0.0733805 -2.04446 200 104 0
2.96307 -0.140732 -2.02411 200 105 0
2.91937 -0.209509 -2.01152 200 106 0
2.88386 -0.278308 -2.00507 200 106 0
2.87732 -0.371458 -2.01043 200 105 0
2.76467 -0.400065 -1.96528 200 108 0
2.79256 -0.50658 -1.99265 200 106 0
2.74472 -0.488057 -2.06618 200 101 0
2.59619 -0.311701 -1.97432 200 108 0
2.63247 -0.240047 -1.9837 200 108 0
2.69998 -0.189236 -2.00809 200 106 0
2.76224 -0.13425 -2.03021 200 105 0
2.80844 -0.0700633 -2.04455 200 104 0
2.83534 0.00533771 -2.0401 200 105 0
2.86109 0.0780299 -2.05463 200 104 0
2.88996 0.15068 -2.06188 200 104 0
2.90791 0.235821 -2.06555 200 104 0
2.94328 0.297703 -2.07593 200 103 0
3.00021 0.364045 -2.09945 200 102 0
2.90122 0.478051 -2.04461 200 106 0
2.91737 0.554224 -2.03926 200 107 0
2.93867 0.62753 -2.04636 200 107 0
3.02079 0.682341 -2.09365 200 104 0
3.0027 0.766907 -2.09167 200 104 0
3.08501 0.826207 -2.12146 200 102 0
3.03063 0.915279 -2.09381 200 104 0
3.14811 0.97253 -2.15107 200 101 0
3.18326 1.04589 -2.16855 200 100 0
3.09566 1.14194 -2.12566 200 103 0
3.12563 1.21552 -2.14176 200 102 0
3.14758 1.29095 -2.15449 200 102 0
3.18908 1.36838 -2.17619 200 101 0
3.15405 1.44719 -2.1631 200 102 0
3.17049 1.52395 -2.17489 200 101 0
3.19522 1.60054 -2.19145 200 100 0
3.20584 1.67861 -2.20158 200 100 0
3.22606 1.75681 -2.22655 200 99 0
3.27904 1.83488 -2.24991 200 97 0
3.19746 1.82938 -2.30522 200 94 0
3.0031 1.75755 -2.19717 200 101 0
2.99578 1.67885 -2.19002 200 101 0
2.95992 1.60627 -2.15755 200 103 0
2.98339 1.52959 -2.16567 200 102 0
2.96966 1.45968 -2.16272 200 102 0
2.94683 1.38363 -2.14031 200 103 0
2.97468 1.30826 -2.16044 200 101 0
2.96578 1.22985 -2.15533 200 102 0
2.97818 1.15583 -2.15047 200 102 0
2.89988 1.0903 -2.11954 200 103 0
2.86166 1.02281 -2.09981 200 105 0
2.81784 0.961423 -2.07724 200 106 0
2.86045 0.875208 -2.1008 200 104 0
2.84045 0.799956 -2.09272 200 104 0
2.82508 0.72653 -2.09643 200 104 0
2.81591 0.652662 -2.08559 200 104 0
2.77159 0.593163 -2.0663 200 105 0
2.75796 0.517932 -2.04512 200 106 0
2.745 0.446947 -2.05277 200 106 0
2.73947 0.365729 -2.05507 200 105 0
2.70515 0.302262 -2.05306 200 105 0
2.70137 0.223079 -2.05811 200 104 0
2.6547 0.162371 -2.04101 200 105 0
2.62811 0.0943256 -2.02602 200 106 0
2.59499 0.0264223 -2.02643 200 106 0
2.58318 -0.0533933 -2.01934 200 106 0
2.56202 -0.124309 -2.02873 200 105 0
2.53831 -0.196755 -2.02698 200 105 0
2.46922 -0.243039 -2.00103 200 106 0
2.38706 -0.279764 -1.96824 200 109 0
2.35401 -0.273499 -2.03943 200 104 0
2.30439 -0.155504 -1.99963 200 107 0
2.36595 -0.104694 -2.02412 200 105 0
2.35557 -0.0215496 -2.00544 200 107 0
2.4464 0.0108748 -2.04607 200 104 0
2.45064 0.0876907 -2.04737 200 105 0
2.46992 0.157791 -2.04881 200 105 0
2.50086 0.223515 -2.04842 200 105 0
2.47543 0.312449 -2.02636 200 107 0
2.49629 0.380012 -2.03065 200 107 0
2.55702 0.431677 -2.05749 200 105 0
2.57271 0.501661 -2.06008 200 105 0
2.58496 0.572558 -2.06141 200 106 0
2.59551 0.643638 -2.06243 200 106 0
2.62551 0.708203 -2.07467 200 105 0
2.65893 0.772167 -2.08933 200 104 0
2.6853 0.838652 -2.10075 200 104 0
2.64092 0.923645 -2.07436 200 106 0
2.65788 0.991772 -2.08187 200 106 0
2.70931 1.05244 -2.10865 200 104 0
2.71299 1.12409 -2.11015 200 104 0
2.72688 1.19357 -2.11777 200 104 0
2.73079 1.26865 -2.11956 200 104 0
2.73722 1.33541 -2.12537 200 104 0
2.71853 1.409 -2.12588 200 104 0
2.74382 1.47717 -2.13331 200 104 0
2.76295 1.54645 -2.14678 200 103 0
2.73337 1.61978 -2.13433 200 105 0
2.76906 1.68836 -2.15805 200 103 0
2.74979 1.76015 -2.15236 200 104 0
2.75514 1.83075 -2.16073 200 104 0
2.76296 1.82427 -2.25522 200 97 0
2.61302 1.75897 -2.16425 200 103 0
2.60547 1.69102 -2.15528 200 104 0
2.59986 1.62312 -2.14803 200 104 0
2.59297 1.55542 -2.14066 200 104 0
2.56212 1.49044 -2.12034 200 105 0
2.58033 1.42006 -2.12839 200 104 0
2.54976 1.35209 -2.11058 200 105 0
2.5455 1.28854 -2.09739 200 106 0
2.55543 1.21393 -2.11202 200 105 0
2.52572 1.15502 -2.08586 200 106 0
2.49826 1.09158 -2.0797 200 106 0
2.47942 1.02703 -2.07036 200 107 0
2.45955 0.962935 -2.06104 200 107 0
2.45269 0.89609 -2.05107 200 108 0
2.45932 0.823506 -2.06656 200 106 0
2.47607 0.747471 -2.07984 200 105 0
2.42622 0.688513 -2.05581 200 106 0
2.44779 0.609178 -2.07301 200 105 0
2.43286 0.546929 -2.06155 200 105 0
2.38789 0.49133 -2.04212 200 107 0
2.36241 0.427297 -2.04309 200 106 0
2.33873 0.363641 -2.03698 200 106 0
2.32273 0.293763 -2.02648 200 107 0
2.27489 0.243957 -2.01696 200 107 0
2.27887 0.166367 -2.02886 200 106 0
2.23268 0.113651 -2.01197 200 107 0
2.18633 0.0617472 -1.99548 200 108 0
2.1447 0.00785992 -1.98228 200 109 0
2.0965 -0.0416686 -1.96567 200 110 0
2.07689 -0.110027 -1.97529 200 109 0
2.08012 -0.119556 -2.05617 200 103 0
2.00594 0.00311837 -1.99599 200 108 0
2.04996 0.052994 -2.01079 200 107 0
2.02464 0.14161 -1.98322 200 109 0
2.05318 0.203266 -1.99073 200 109 0
2.07884 0.258475 -1.99509 200 109 0
2.10547 0.317089 -2.00162 200 109 0
2.12208 0.380332 -2.00267 200 109 0
2.15796 0.434717 -2.01599 200 108 0
2.21369 0.481265 -2.04177 200 107 0
2.23533 0.542737 -2.04759 200 106 0
2.24857 0.605283 -2.06603 200 105 0
2.28023 0.665047 -2.06197 200 106 0
2.297 0.732155 -2.06669 200 106 0
2.35837 0.777103 -2.09843 200 104 0
2.28677 0.867434 -2.05202 200 107 0
2.30618 0.933382 -2.05139 200 108 0
2.33231 0.988697 -2.0728 200 107 0
2.32334 1.05692 -2.07377 200 107 0
2.26426 1.13652 -2.02905 200 110 0
2.33047 1.18733 -2.06709 200 108 0
2.32832 1.25288 -2.06548 200 108 0
2.3174 1.31945 -2.0593 200 109 0
2.32446 1.38262 -2.06428 200 109 0
2.35172 1.44312 -2.08176 200 108 0
2.43059 1.49858 -2.13027 200 105 0
2.38738 1.56819 -2.10741 200 106 0
2.40155 1.63172 -2.119 200 106 0
2.40335 1.69635 -2.12387 200 106 0
2.42722 1.76009 -2.14245 200 105 0
2.39983 1.82202 -2.13308 200 106 0
2.39335 1.81994 -2.21248 200 100 0
2.29356 1.75953 -2.14585 200 105 0
2.28952 1.69302 -2.13255 200 105 0
2.30263 1.63313 -2.14349 200 104 0
2.2636 1.57371 -2.11644 200 106 0
2.25358 1.51224 -2.10785 200 106 0
2.23232 1.45242 -2.09298 200 107 0
2.19774 1.3914 -2.07164 200 108 0
2.18548 1.3351 -2.06241 200 109 0
2.20217 1.27354 -2.07171 200 108 0
2.18236 1.21133 -2.05285 200 109 0
2.17129 1.15052 -2.05536 200 108 0
2.17006 1.08817 -2.04815 200 109 0
2.16481 1.02541 -2.05547 200 108 0
2.13354 0.966348 -2.03953 200 109 0
2.12197 0.908889 -2.04382 200 108 0
2.12043 0.849509 -2.03871 200 108 0
2.10146 0.787031 -2.0319 200 109 0
2.12492 0.713136 -2.05188 200 107 0
2.08105 0.663144 -2.03071 200 108 0
2.05579 0.60664 -2.02166 200 109 0
2.03437 0.544782 -2.01518 200 109 0
2.03192 0.482275 -2.02205 200 108 0
2.00316 0.427187 -2.01259 200 109 0
2.00684 0.356527 -2.02429 200 107 0
1.95491 0.312811 -2.00129 200 109 0
1.9137 0.266076 -1.97738 200 110 0
1.86756 0.219626 -1.96719 200 111 0
1.83073 0.170166 -1.95529 200 112 0
1.82503 0.0984564 -1.963 200 111 0
1.78537 0.0546669 -1.95165 200 111 0
1.7556 0.0643696 -2.0143 200 107 0
1.68131 0.180155 -1.9497 200 112 0
1.71346 0.229381 -1.95865 200 112 0
1.74909 0.276873 -1.97047 200 111 0
1.79968 0.316778 -1.99282 200 110 0
1.82316 0.371615 -1.99755 200 109 0
1.83439 0.432343 -1.99479 200 110 0
1.85475 0.488233 -1.99871 200 110 0
1.91098 0.531952 -2.02721 200 108 0
1.9369 0.582075 -2.03542 200 108 0
1.95098 0.641088 -2.03695 200 108 0
1.95791 0.702556 -2.0345 200 108 0
1.99127 0.754846 -2.0416 200 108 0
1.9683 0.825172 -2.02929 200 109 0
1.98403 0.882315 -2.03441 200 109 0
2.00347 0.942134 -2.04225 200 109 0
2.0172 0.999878 -2.04717 200 108 0
2.03135 1.05366 -2.05342 200 108 0
2.01839 1.11796 -2.0426 200 109 0
2.07721 1.165 -2.07818 200 107 0
2.08222 1.22503 -2.08002 200 107 0
2.03229 1.29526 -2.04748 200 110 0
2.0404 1.35337 -2.0525 200 109 0
2.03965 1.41298 -2.04459 200 110 0
2.06925 1.4679 -2.07238 200 109 0
2.07817 1.52998 -2.07051 200 109 0
2.07721 1.58567 -2.08132 200 108 0
2.09469 1.64345 -2.09532 200 108 0
2.11014 1.70187 -2.10865 200 107 0
2.10413 1.76172 -2.10883 200 107 0
2.08775 1.82156 -2.10293 200 108 0
2.05006 1.8172 -2.16706 200 103 0
1.96084 1.76236 -2.09506 200 108 0
1.99689 1.70311 -2.11519 200 107 0
1.95966 1.64473 -2.08861 200 108 0
1.93667 1.59361 -2.06925 200 109 0
1.94559 1.53194 -2.08215 200 108 0
1.93924 1.47927 -2.07523 200 108 0
1.91773 1.42521 -2.06009 200 109 0
1.92097 1.3564 -2.05703 200 109 0
1.91303 1.31161 -2.04924 200 110 0
1.88836 1.25907 -2.03381 200 110 0
1.87936 1.2035 -2.02935 200 111 0
1.86927 1.15187 -2.02419 200 111 0
1.8631 1.08786 -2.02382 200 110 0
1.87965 1.02836 -2.03769 200 109 0
1.85777 0.975666 -2.02706 200 110 0
1.83886 0.922276 -2.01899 200 110 0
1.81856 0.869486 -2.01056 200 111 0
1.80507 0.810525 -2.00727 200 111 0
1.79756 0.756731 -2.00866 200 110 0
1.78583 0.696505 -2.0076 200 110 0
1.74814 0.650901 -1.98966 200 111 0
1.74984 0.592201 -1.99948 200 110 0
1.72907 0.53921 -1.99433 200 110 0
1.7428 0.469197 -2.01354 200 109 0
1.67816 0.437751 -1.97936 200 111 0
1.65322 0.382934 -1.97231 200 111 0
1.6394 0.329698 -1.97522 200 111 0
1.66588 0.250232 -1.99838 200 109 0
1.62264 0.204835 -1.98019 200 110 0
1.56426 0.177651 -1.95386 200 112 0
1.52704 0.190697 -2.01461 200 108 0
1.48147 0.28037 -1.96546 200 111 0
1.50814 0.332207 -1.97263 200 111 0
1.53257 0.381367 -1.97775 200 111 0
1.53275 0.443542 -1.9659 200 112 0
1.56583 0.489059 -1.97077 200 112 0
1.57806 0.546352 -1.97729 200 112 0
1.59437 0.594927 -1.97855 200 112 0
1.60434 0.65 -1.97647 200 112 0
1.63048 0.697677 -1.98646 200 112 0
1.66288 0.743061 -2.0014 200 111 0
1.67194 0.79901 -1.99276 200 112 0
1.68561 0.854785 -2.00346 200 111 0
1.68818 0.907617 -1.99931 200 112 0
1.68828 0.964525 -1.99407 200 112 0
1.70406 1.01601 -2.00034 200 112 0
9.54566 -0.539081 -0.637523 200 255 0
18.7422 -1.71433 -1.21678 200 216 0
18.9707 -2.07182 -1.20931 200 216 0
18.1888 -2.30825 -1.1409 200 221 0
17.8824 -2.58714 -1.10336 200 223 0
17.7174 -2.87779 -1.07997 200 225 0
17.05 -3.07735 -1.01679 200 229 0
16.1913 -3.21323 -0.954325 200 233 0
15.8704 -3.43828 -0.919272 200 236 0
15.3124 -3.59803 -0.871261 200 239 0
15.1904 -3.85002 -0.848628 200 240 0
14.6447 -3.98604 -0.795923 200 244 0
14.1562 -3.8727 -1.02606 200 229 0
13.5751 -3.46033 -0.997434 200 230 0
13.7007 -3.23708 -1.0259 200 229 0
14.3863 -3.13499 -1.09099 200 224 0
14.7179 -2.94107 -1.12506 200 222 0
14.7762 -2.68535 -1.14407 200 221 0
15.1175 -2.47345 -1.1897 200 218 0
15.157 -2.21095 -1.20341 200 217 0
15.852 -2.03025 -1.27421 200 212 0
16.6358 -1.83114 -1.36002 200 206 0
17.411 -1.61157 -1.43672 200 201 0
17.6367 -1.32462 -1.46996 200 199 0
17.6556 -1.01609 -1.48907 200 198 0
9.70329 -0.388399 -0.828047 200 242 0
9.57416 -0.215671 -0.826612 200 242 0
9.55719 -0.0481319 -0.83476 200 241 0
9.55743 0.119025 -0.844444 200 241 0
9.57567 0.287434 -0.872113 200 239 0
9.56985 0.45584 -0.864277 200 239 0
15.4071 1.00436 -1.40687 200 203 0
15.349 1.27068 -1.41704 200 202 0
15.3232 1.53652 -1.43292 200 201 0
15.2903 1.80407 -1.44599 200 201 0
15.2902 2.07607 -1.46229 200 199 0
15.2492 2.34312 -1.4748 200 199 0
22.1054 3.79399 -2.16195 200 153 0
22.0286 4.17923 -2.17869 200 152 0
21.9504 4.56795 -2.18743 200 151 0
21.8655 4.95147 -2.20293 200 150 0
21.7773 5.33431 -2.21822 200 149 0
21.674 5.7082 -2.28017 200 145 0
21.6384 5.68935 -2.62289 200 122 0
21.7367 5.30917 -2.60852 200 123 0
21.8354 4.92444 -2.60304 200 123 0
21.9153 4.53994 -2.58628 200 124 0
21.9961 4.1557 -2.56989 200 126 0
22.0663 3.77385 -2.5459 200 127 0
22.1272 3.38159 -2.53425 200 128 0
22.1852 2.99779 -2.51071 200 129 0
22.239 2.60022 -2.50191 200 130 0
15.3731 1.52783 -1.70954 200 183 0
15.3261 1.2553 -1.6856 200 185 0
15.3404 0.986208 -1.67132 200 185 0
15.3621 0.714711 -1.65926 200 186 0
15.405 0.446469 -1.64789 200 187 0
9.58901 0.109899 -1.01591 200 229 0
9.58162 -0.0579709 -1.0054 200 230 0
9.54953 -0.223273 -0.992832 200 231 0
9.55072 -0.392392 -0.983069 200 231 0
9.55644 -0.558595 -0.975224 200 232 0
9.5734 -0.729572 -0.966635 200 233 0
17.1945 -1.61336 -1.71951 200 182 0
16.925 -1.88725 -1.67632 200 185 0
16.6025 -2.143 -1.63231 200 188 0
15.7584 -2.31756 -1.53087 200 195 0
15.1213 -2.49212 -1.45912 200 200 0
15.0771 -2.75637 -1.44125 200 201 0
14.6233 -2.9384 -1.38475 200 205 0
14.4569 -3.16876 -1.3561 200 207 0
13.7611 -3.26924 -1.27862 200 212 0
13.5628 -3.47567 -1.24214 200 214 0
12.8613 -3.53634 -1.16615 200 219 0
12.787 -3.53131 -1.39904 200 204 0
11.9942 -3.08776 -1.32188 200 209 0
12.8533 -3.07529 -1.41623 200 203 0
12.8872 -2.84366 -1.43631 200 201 0
13.3833 -2.70859 -1.50312 200 197 0
13.4928 -2.48055 -1.53585 200 195 0
13.7678 -2.28826 -1.57046 200 192 0
14.2609 -2.11447 -1.63945 200 188 0
14.7296 -1.92113 -1.70668 200 183 0
15.0603 -1.69669 -1.75882 200 180 0
15.1899 -1.4393 -1.79061 200 178 0
15.7244 -1.20889 -1.8124 200 176 0
16.3624 -0.977065 -1.95724 200 166 0
9.68986 -0.406353 -1.16922 200 219 0
9.55755 -0.233101 -1.1624 200 219 0
9.54055 -0.0674324 -1.16949 200 219 0
9.54748 0.100847 -1.16318 200 219 0
9.55188 0.269595 -1.19004 200 218 0
9.56856 0.436036 -1.20266 200 217 0
15.5222 0.981796 -1.94014 200 168 0
15.2947 1.23923 -1.95327 200 167 0
15.2606 1.50645 -1.96538 200 166 0
15.2375 1.77127 -1.98224 200 165 0
15.2632 2.04641 -2.00316 200 163 0
22.0903 3.36266 -2.91922 200 102 0
22.0183 3.74331 -2.94189 200 101 0
21.9496 4.1295 -2.95949 200 100 0
21.8761 4.5201 -2.96892 200 99 0
21.784 4.89644 -2.99196 200 97 0
21.6926 5.27795 -3.00756 200 96 0
22.6046 5.928 -3.15363 200 87 0
24.409 6.38452 -3.85397 200 40 0
4.52215 1.09694 -0.709693 200 250 0
4.53853 1.0167 -0.706018 200 250 0
4.55622 0.936802 -0.70265 200 250 0
22.9091 4.29177 -3.50295 200 63 0
21.9674 3.7167 -3.33084 200 75 0
22.034 3.33056 -3.31339 200 76 0
22.0938 2.9433 -3.29538 200 77 0
22.1481 2.5609 -3.27258 200 79 0
15.257 1.48898 -2.23962 200 148 0
15.2594 1.21897 -2.22256 200 149 0
15.2795 0.95078 -2.20843 200 150 0
15.297 0.682413 -2.19426 200 151 0
15.4104 0.416501 -2.19407 200 151 0
9.55839 0.0904587 -1.35089 200 207 0
9.54539 -0.0772231 -1.33929 200 208 0
9.52809 -0.24435 -1.32732 200 208 0
9.5156 -0.411192 -1.31625 200 209 0
9.52503 -0.579145 -1.30841 200 210 0
9.62753 -0.75505 -1.31344 200 209 0
9.61425 -0.923876 -1.30278 200 210 0
15.1402 -1.72323 -2.03791 200 161 0
14.854 -1.95493 -1.98627 200 164 0
14.4523 -2.16031 -1.92005 200 169 0
13.7856 -2.30823 -1.81978 200 176 0
13.6361 -2.52947 -1.78872 200 178 0
13.2502 -2.6987 -1.72731 200 182 0
12.9319 -2.8676 -1.68051 200 185 0
12.4742 -2.99893 -1.60645 200 190 0
12.1113 -3.13412 -1.55592 200 193 0
11.9134 -3.30902 -1.51618 200 196 0
11.4559 -3.1981 -1.66909 200 186 0
11.1428 -2.89852 -1.63597 200 188 0
11.3675 -2.74822 -1.67163 200 185 0
11.4719 -2.56159 -1.69514 200 184 0
12.0177 -2.4601 -1.78891 200 178 0
12.058 -2.252 -1.7997 200 177 0
12.7233 -2.14613 -1.90892 200 170 0
12.765 -1.92022 -1.92876 200 168 0
13.0872 -1.73449 -1.98784 200 164 0
13.4072 -1.5416 -2.04472 200 161 0
13.4387 -1.30311 -2.06352 200 159 0
14.0198 -1.11517 -2.16295 200 153 0
14.0375 -0.868868 -2.17863 200 152 0
9.55457 -0.423111 -1.49193 200 197 0
9.53684 -0.254579 -1.49845 200 197 0
9.51094 -0.0840887 -1.50404 200 197 0
9.50761 0.0724934 -1.51353 200 196 0
9.51293 0.246857 -1.54101 200 194 0
9.53472 0.416168 -1.53782 200 194 0
15.4856 0.949013 -2.51485 200 129 0
15.228 1.20242 -2.4904 200 131 0
15.1946 1.4692 -2.50277 200 130 0
15.1652 1.73622 -2.51619 200 129 0
15.2088 2.013 -2.54224 200 127 0
21.9769 3.30345 -3.70147 200 50 0
21.9124 3.6959 -3.71277 200 49 0
21.841 4.07419 -3.73638 200 48 0
21.7679 4.4587 -3.75387 200 46 0
21.682 4.84722 -3.76131 200 46 0
21.5899 5.22113 -3.78517 200 44 0
21.4941 5.6007 -3.80053 200 43 0
22.8143 5.9282 -4.4577 200 0 0
20.5803 4.96165 -3.98863 200 31 0
20.6683 4.59853 -3.97397 200 32 0
20.9761 4.28006 -4.0019 200 30 0
19.5253 3.62651 -3.6969 200 50 0
19.5761 3.27991 -3.67908 200 51 0
19.2076 2.87094 -3.58368 200 58 0
18.4736 2.42912 -3.42236 200 69 0
18.5164 2.10347 -3.40658 200 70 0
15.3122 1.47156 -2.7955 200 110 0
15.1935 1.18561 -2.75807 200 113 0
15.2058 0.917453 -2.74254 200 114 0
15.2357 0.650243 -2.73066 200 115 0
16.1726 0.405174 -2.88083 200 105 0
9.57943 0.071338 -1.69619 200 184 0
9.51984 -0.0966273 -1.67582 200 185 0
9.49465 -0.263468 -1.66191 200 186 0
9.48979 -0.430464 -1.65189 200 187 0
9.49254 -0.595123 -1.64453 200 187 0
9.60042 -0.771539 -1.65484 200 187 0
13.6929 -1.34712 -2.34637 200 140 0
13.6697 -1.58778 -2.33087 200 141 0
13.6423 -1.82798 -2.31511 200 143 0
12.5986 -1.91389 -2.1281 200 155 0
12.2576 -2.08285 -2.06124 200 159 0
11.9437 -2.24586 -1.99979 200 164 0
11.8499 -2.44422 -1.97581 200 165 0
11.6298 -2.60891 -1.93588 200 168 0
11.2579 -2.73699 -1.86236 200 173 0
10.786 -2.8234 -1.77768 200 178 0
10.6774 -2.99588 -1.75355 200 180 0
10.5368 -2.9681 -1.93216 200 168 0
10.4878 -2.75998 -1.92325 200 169 0
10.5902 -2.58911 -1.94769 200 167 0
10.6316 -2.39886 -1.96555 200 166 0
10.8773 -2.25431 -2.0172 200 162 0
10.9004 -2.06009 -2.02809 200 162 0
11.4585 -1.9577 -2.13928 200 154 0
11.6903 -1.78645 -2.19049 200 151 0
11.9585 -1.61282 -2.24925 200 147 0
12.206 -1.42812 -2.30491 200 143 0
12.4263 -1.23686 -2.3541 200 140 0
12.9962 -1.05007 -2.47864 200 132 0
13.0731 -0.833657 -2.50076 200 130 0
9.63383 -0.442974 -1.78111 200 178 0
9.50943 -0.27397 -1.8359 200 175 0
9.47673 -0.106038 -1.83903 200 174 0
9.4736 0.0641368 -1.84812 200 174 0
9.46973 0.226941 -1.87479 200 172 0
9.46569 0.394759 -1.86739 200 172 0
15.6569 0.929735 -3.10686 200 90 0
15.2177 1.17331 -3.0379 200 94 0
15.1268 1.43512 -3.03845 200 94 0
15.1179 1.69324 -3.06195 200 93 0
15.975 2.08665 -3.25043 200 80 0
16.0221 2.38118 -3.28196 200 78 0
16.4809 2.75356 -3.39449 200 70 0
16.4525 3.04246 -3.41751 200 69 0
7.40249 1.50459 -1.54884 200 194 0
15.5531 3.4542 -3.27251 200 79 0
15.4785 3.72009 -3.2878 200 78 0
16.8886 4.37616 -3.61553 200 56 0
15.9355 4.11751 -3.71137 200 49 0
13.8707 3.32322 -3.2061 200 83 0
13.9631 3.08513 -3.20378 200 83 0
14.604 2.95673 -3.3269 200 75 0
14.642 2.69571 -3.3124 200 76 0
14.2329 2.36095 -3.19814 200 84 0
14.5478 2.15528 -3.24373 200 81 0
14.5833 1.89208 -3.2347 200 81 0
14.6169 1.63433 -3.22215 200 82 0
14.6539 1.3768 -3.21098 200 83 0
15.1636 1.16066 -3.30141 200 77 0
13.8968 0.811875 -3.01047 200 96 0
14.9244 0.607767 -3.21555 200 82 0
14.9407 0.350038 -3.20159 200 83 0
9.55317 0.0516369 -2.03715 200 161 0
9.46309 -0.115787 -2.00811 200 163 0
9.46163 -0.282704 -1.99838 200 164 0
9.4473 -0.449084 -1.98636 200 164 0
9.4749 -0.614461 -1.98462 200 165 0
9.60881 -0.796892 -2.00324 200 163 0
12.1243 -1.22088 -2.51767 200 129 0
12.1539 -1.4422 -2.5364 200 128 0
11.9233 -1.62642 -2.45772 200 133 0
11.4971 -1.77489 -2.3618 200 139 0
11.2619 -1.94201 -2.30606 200 143 0
11.2288 -2.13627 -2.29603 200 144 0
11.0996 -2.31859 -2.2595 200 146 0
10.648 -2.42032 -2.16185 200 153 0
10.1369 -2.48862 -2.05736 200 160 0
8.00999 -2.11916 -1.61861 200 189 0
9.80822 -2.78007 -1.97791 200 165 0
9.66406 -2.74946 -2.13648 200 154 0
9.33043 -2.47811 -2.06549 200 159 0
9.40063 -2.32422 -2.08022 200 158 0
9.6777 -2.21288 -2.14564 200 154 0
10.0524 -2.11318 -2.23346 200 148 0
10.1375 -1.94545 -2.25764 200 146 0
10.2162 -1.77069 -2.28404 200 145 0
10.6698 -1.66047 -2.38876 200 138 0
10.748 -1.47078 -2.41851 200 136 0
11.0363 -1.32118 -2.4859 200 131 0
11.1568 -1.1321 -2.52343 200 129 0
11.4058 -0.958993 -2.58685 200 124 0
11.5859 -0.764 -2.63888 200 121 0
12.1161 -0.589269 -2.7691 200 112 0
9.50293 -0.294168 -2.18084 200 151 0
9.44837 -0.121765 -2.17793 200 152 0
9.44691 0.0413134 -2.18723 200 151 0
9.45998 0.212378 -2.20023 200 150 0
9.48422 0.376849 -2.21709 200 149 0
12.301 0.706745 -2.89026 200 104 0
13.0918 0.990108 -3.09071 200 91 0
11.3224 1.05332 -2.68924 200 118 0
12.2021 1.3533 -2.91473 200 102 0
12.1825 1.56983 -2.92725 200 102 0
11.5304 1.90294 -2.80514 200 110 0
11.5945 2.13006 -2.83544 200 108 0
11.9229 2.40436 -2.93925 200 101 0
11.5952 2.55791 -2.87388 200 105 0
11.4081 2.72952 -2.84742 200 107 0
11.3561 2.92587 -2.86015 200 106 0
11.1408 2.86737 -3.01388 200 96 0
10.1542 2.4221 -2.72768 200 115 0
10.1904 2.2356 -2.72267 200 115 0
10.1023 2.02906 -2.68103 200 118 0
10.1101 1.84932 -2.66249 200 119 0
10.1434 1.66542 -2.65773 200 120 0
10.3601 1.51287 -2.69808 200 117 0
10.2354 1.30981 -2.65003 200 120 0
10.0711 1.10777 -2.5928 200 124 0
10.7656 0.99148 -2.75659 200 113 0
10.639 0.790072 -2.70995 200 116 0
10.6415 0.601025 -2.69702 200 117 0
10.486 0.406202 -2.64483 200 121 0
10.5626 0.226716 -2.65152 200 120 0
10.2493 0.0386309 -2.56187 200 126 0
9.4794 -0.136051 -2.35956 200 140 0
9.43428 -0.302281 -2.33897 200 141 0
9.43244 -0.4692 -2.32967 200 142 0
9.43447 -0.636553 -2.32184 200 142 0
9.42427 -0.795204 -2.3143 200 143 0
10.2983 -1.0612 -2.51788 200 129 0
10.2881 -1.244 -2.50796 200 130 0
10.312 -1.42751 -2.50936 200 130 0
10.2037 -1.60074 -2.47424 200 132 0
10.0305 -1.75173 -2.38952 200 138 0
9.72061 -1.87817 -2.34664 200 140 0
9.68158 -2.04818 -2.33278 200 141 0
9.61836 -2.21245 -2.31365 200 143 0
9.28303 -2.3081 -2.22972 200 148 0
9.18301 -2.4556 -2.20296 200 150 0
9.13794 -2.61279 -2.19449 200 151 0
8.90025 -2.55762 -2.3087 200 143 0
8.4203 -2.26376 -2.18129 200 151 0
8.70181 -2.17191 -2.2599 200 146 0
8.73093 -2.0164 -2.26959 200 146 0
8.76306 -1.85998 -2.26428 200 146 0
8.91333 -1.72992 -2.32298 200 142 0
8.93976 -1.57597 -2.33092 200 141 0
8.88454 -1.401 -2.32355 200 142 0
9.34862 -1.30544 -2.45 200 134 0
9.55 -1.16198 -2.50852 200 130 0
9.37067 -0.976765 -2.46591 200 132 0
9.6592 -0.83456 -2.5491 200 127 0
9.35859 -0.642116 -2.47735 200 132 0
9.8146 -0.499182 -2.6066 200 123 0
9.65902 -0.315562 -2.57482 200 125 0
9.44608 -0.145699 -2.52687 200 128 0
9.434 0.0259637 -2.53352 200 128 0
9.43098 0.188606 -2.54325 200 127 0
9.62143 0.363039 -2.60593 200 123 0
9.59002 0.536757 -2.60837 200 123 0
9.43966 0.696427 -2.57949 200 125 0
9.41312 0.85806 -2.58633 200 124 0
9.46606 1.03251 -2.61447 200 123 0
9.44977 1.20536 -2.62208 200 122 0
9.31187 1.35163 -2.60053 200 123 0
9.27568 1.51956 -2.60302 200 123 0
9.56637 1.74219 -2.70072 200 117 0
9.34449 1.87388 -2.65451 200 120 0
9.30667 2.03433 -2.6644 200 119 0
9.29123 2.21442 -2.70532 200 116 0
9.15969 2.34629 -2.6587 200 120 0
9.10817 2.33111 -2.817 200 109 0
8.51132 2.01301 -2.61817 200 122 0
8.56859 1.86613 -2.61839 200 122 0
8.55542 1.70437 -2.59773 200 124 0
8.2221 1.48639 -2.48121 200 131 0
8.49797 1.38064 -2.54932 200 127 0
8.52321 1.2296 -2.54237 200 127 0
8.74872 1.10376 -2.59542 200 124 0
8.63331 0.933667 -2.5478 200 127 0
8.68651 0.783576 -2.55068 200 127 0
8.58902 0.62123 -2.51001 200 130 0
8.60925 0.473597 -2.50363 200 130 0
8.73013 0.324961 -2.52804 200 128 0
8.39354 0.163381 -2.42083 200 135 0
8.52469 0.0104353 -2.44936 200 134 0
8.53043 -0.140805 -2.44201 200 134 0
8.44396 -0.289125 -2.4089 200 136 0
8.79414 -0.457203 -2.50069 200 130 0
8.79252 -0.613408 -2.49269 200 131 0
8.78415 -0.769289 -2.48337 200 131 0
8.59371 -0.906101 -2.42329 200 135 0
8.64343 -1.06764 -2.44789 200 134 0
8.65163 -1.22291 -2.42875 200 135 0
8.6151 -1.37346 -2.41392 200 136 0
8.4821 -1.50637 -2.3727 200 139 0
8.39064 -1.64348 -2.34375 200 141 0
8.37652 -1.79481 -2.337 200 141 0
8.22907 -1.91167 -2.29699 200 144 0
8.18482 -2.05821 -2.27966 200 145 0
8.08247 -2.18075 -2.25388 200 147 0
8.04977 -2.32882 -2.24043 200 148 0
7.99155 -2.32396 -2.38104 200 138 0
7.73905 -2.09918 -2.3093 200 143 0
7.57427 -1.91161 -2.26027 200 146 0
7.43423 -1.73722 -2.21918 200 149 0
7.72248 -1.66529 -2.30361 200 143 0
7.67805 -1.51425 -2.29245 200 144 0
7.82799 -1.40053 -2.33991 200 141 0
7.86062 -1.25922 -2.35513 200 140 0
7.74632 -1.10474 -2.32249 200 142 0
7.34328 -0.91495 -2.20575 200 150 0
7.9274 -0.841298 -2.38767 200 138 0
7.82391 -0.694491 -2.36052 200 139 0
7.83078 -0.555425 -2.36864 200 139 0
7.87764 -0.415352 -2.40519 200 137 0
7.97157 -0.277614 -2.42573 200 135 0
7.79886 -0.137253 -2.3804 200 138 0
7.94031 0.00546875 -2.43198 200 135 0
7.76239 0.143223 -2.38605 200 138 0
8.00382 0.285676 -2.47019 200 132 0
7.81713 0.422442 -2.42187 200 135 0
7.79716 0.559626 -2.45585 200 133 0
7.88153 0.707701 -2.46338 200 133 0
7.93262 0.850451 -2.49261 200 131 0
7.91411 0.995577 -2.4977 200 130 0
7.78097 1.11556 -2.47044 200 132 0
7.74067 1.25515 -2.4691 200 132 0
7.88023 1.41787 -2.5304 200 128 0
7.92196 1.5716 -2.55913 200 126 0
7.91442 1.72175 -2.56971 200 126 0
7.86092 1.85748 -2.56872 200 126 0
7.82556 1.99262 -2.57769 200 125 0
7.60148 1.93431 -2.65161 200 120 0
7.14259 1.67825 -2.49214 200 131 0
7.3194 1.58217 -2.52347 200 129 0
7.33425 1.44885 -2.51315 200 129 0
7.19992 1.28926 -2.45266 200 133 0
7.21655 1.15978 -2.44451 200 134 0
7.3931 1.05327 -2.49084 200 131 0
7.30644 0.908341 -2.44899 200 134 0
7.2857 0.774189 -2.43006 200 135 0
7.44384 0.657121 -2.47122 200 132 0
7.35844 0.517709 -2.43203 200 135 0
7.38268 0.387487 -2.42979 200 135 0
7.31976 0.253677 -2.39952 200 137 0
7.31821 0.123354 -2.39005 200 138 0
7.30032 -0.0067694 -2.37586 200 138 0
7.35129 -0.137496 -2.38462 200 138 0
7.30032 -0.26635 -2.36089 200 139 0
7.26556 -0.386203 -2.34442 200 141 0
7.27664 -0.524681 -2.34059 200 141 0
7.31617 -0.658209 -2.34781 200 140 0
7.4365 -0.80223 -2.38141 200 138 0
7.2947 -0.918031 -2.33164 200 141 0
7.29099 -1.04912 -2.32666 200 142 0
7.13431 -1.15194 -2.27552 200 145 0
7.21588 -1.30063 -2.29687 200 144 0
7.25766 -1.44122 -2.30809 200 143 0
7.20683 -1.56412 -2.29042 200 144 0
7.07388 -1.66675 -2.24725 200 147 0
7.00522 -1.78181 -2.2251 200 149 0
6.97696 -1.90645 -2.21634 200 149 0
6.9311 -2.02609 -2.20257 200 150 0
6.88055 -2.0178 -2.32808 200 142 0
6.53032 -1.79035 -2.20801 200 150 0
6.56509 -1.67563 -2.21878 200 149 0
6.68821 -1.58155 -2.25998 200 146 0
6.71228 -1.46623 -2.26572 200 146 0
6.8253 -1.36476 -2.30485 200 143 0
6.92053 -1.25265 -2.34079 200 141 0
6.75164 -1.09884 -2.28556 200 144 0
6.70404 -0.973335 -2.2702 200 146 0
6.76437 -0.859856 -2.29389 200 144 0
6.77135 -0.734858 -2.30136 200 143 0
6.79517 -0.615554 -2.31365 200 143 0
6.75574 -0.491136 -2.30496 200 143 0
6.74974 -0.374249 -2.30756 200 143 0
6.75289 -0.250041 -2.31514 200 143 0
6.80112 -0.130723 -2.33816 200 141 0
6.85177 -0.0138478 -2.36267 200 139 0
6.97246 0.114271 -2.41214 200 136 0
6.72467 0.230081 -2.33455 200 141 0
6.98305 0.3636 -2.43332 200 135 0
6.72209 0.466196 -2.35252 200 140 0
6.72469 0.591165 -2.36254 200 139 0
6.75339 0.711151 -2.38446 200 138 0
6.76559 0.838952 -2.39875 200 137 0
6.70915 0.94969 -2.39217 200 137 0
6.7136 1.07295 -2.4064 200 136 0
6.77296 1.20691 -2.4411 200 134 0
6.51801 1.28619 -2.36055 200 139 0
6.73572 1.45043 -2.45643 200 133 0
6.55529 1.53956 -2.42881 200 135 0
6.57891 1.66919 -2.4272 200 135 0
6.56763 1.66135 -2.55672 200 126 0
6.07767 1.41796 -2.35348 200 140 0
6.11947 1.31261 -2.35509 200 140 0
6.19487 1.21318 -2.37006 200 139 0
6.15909 1.09618 -2.34117 200 141 0
6.21286 0.98731 -2.35079 200 140 0
6.1492 0.864734 -2.31475 200 143 0
6.24235 0.768367 -2.33698 200 141 0
6.22203 0.649161 -2.31987 200 142 0
6.24768 0.542725 -2.343 200 141 0
6.31268 0.431395 -2.33357 200 141 0
6.31038 0.318189 -2.32358 200 142 0
6.43568 0.209469 -2.36102 200 139 0
6.38181 0.0938215 -2.33322 200 141 0
6.3674 -0.0199176 -2.32054 200 142 0
6.40269 -0.134147 -2.32652 200 142 0
6.39784 -0.248111 -2.31848 200 142 0
6.36453 -0.360395 -2.30073 200 143 0
6.19996 -0.457985 -2.23708 200 148 0
6.28226 -0.580547 -2.26149 200 146 0
6.31558 -0.697069 -2.26956 200 146 0
6.33279 -0.813113 -2.27238 200 145 0
6.24302 -0.914572 -2.23741 200 148 0
6.24235 -1.02798 -2.23497 200 148 0
6.17008 -1.12502 -2.20945 200 150 0
6.15643 -1.2396 -2.20156 200 150 0
6.20058 -1.36328 -2.21686 200 149 0
6.21269 -1.4818 -2.22128 200 149 0
6.17804 -1.58966 -2.20957 200 150 0
6.14574 -1.69787 -2.19927 200 150 0
6.1377 -1.8131 -2.19823 200 150 0
6.06126 -1.80005 -2.29553 200 144 0
4.97829 -1.37971 -1.88583 200 171 0
5.8067 -1.49902 -2.19776 200 150 0
5.84533 -1.40279 -2.20864 200 150 0
5.84845 -1.29044 -2.21155 200 149 0
5.85652 -1.18362 -2.21448 200 149 0
5.78424 -1.06628 -2.18574 200 151 0
5.84516 -0.970484 -2.20998 200 150 0
5.86881 -0.863656 -2.22222 200 149 0
5.90155 -0.765404 -2.23547 200 148 0
5.92574 -0.657651 -2.24873 200 147 0
5.93406 -0.555759 -2.25427 200 147 0
5.90548 -0.447152 -2.24749 200 147 0
5.93117 -0.34294 -2.26193 200 146 0
5.93394 -0.23706 -2.26823 200 146 0
5.91162 -0.130628 -2.26549 200 146 0
6.02719 -0.0256109 -2.31628 200 142 0
5.96616 0.085177 -2.2997 200 144 0
5.90138 0.189723 -2.28208 200 145 0
5.89215 0.294899 -2.28643 200 144 0
5.88389 0.408041 -2.29032 200 144 0
5.84743 0.498777 -2.28746 200 144 0
5.8237 0.601878 -2.28798 200 144 0
5.8154 0.710433 -2.29389 200 144 0
5.74045 0.805843 -2.27505 200 145 0
5.87324 0.932048 -2.33928 200 141 0
5.77361 1.02262 -2.31165 200 143 0
5.7065 1.11659 -2.29735 200 144 0
5.73852 1.22603 -2.32569 200 142 0
5.73435 1.33313 -2.33818 200 141 0
5.65749 1.42274 -2.32153 200 142 0
5.69433 1.42737 -2.45562 200 133 0
5.37118 1.24822 -2.29961 200 144 0
5.44167 1.15793 -2.31804 200 142 0
5.40889 1.04978 -2.29089 200 144 0
5.42859 0.9528 -2.28668 200 144 0
5.37138 0.843687 -2.25081 200 147 0
5.3805 0.758213 -2.23955 200 148 0
5.52854 0.666203 -2.29441 200 144 0
5.42139 0.558809 -2.23899 200 148 0
5.4187 0.456686 -2.22949 200 148 0
5.43154 0.359936 -2.22599 200 148 0
5.51631 0.266476 -2.25241 200 147 0
5.61298 0.170552 -2.28403 200 145 0
5.53415 0.0691306 -2.2448 200 147 0
5.60822 -0.0222855 -2.26827 200 146 0
5.60909 -0.130453 -2.26246 200 146 0
5.58041 -0.229551 -2.24543 200 147 0
5.58187 -0.3295 -2.24114 200 147 0
5.58632 -0.42989 -2.23861 200 148 0
5.57301 -0.528978 -2.22954 200 148 0
5.55271 -0.627084 -2.21827 200 149 0
5.44627 -0.709728 -2.17446 200 152 0
5.54561 -0.827206 -2.21086 200 149 0
5.53258 -0.926177 -2.20424 200 150 0
5.44239 -1.01089 -2.16747 200 152 0
5.46713 -1.11635 -2.17706 200 152 0
5.46207 -1.21677 -2.17535 200 152 0
5.49047 -1.32583 -2.18756 200 151 0
5.4647 -1.42268 -2.17877 200 152 0
5.39383 -1.50309 -2.1552 200 153 0
5.32565 -1.59008 -2.12798 200 155 0
5.34085 -1.60325 -2.247 200 147 0
4.32348 -1.2115 -1.81854 200 176 0
4.21248 -1.10011 -1.76972 200 179 0
5.14838 -1.24725 -2.16091 200 153 0
5.09526 -1.13888 -2.13723 200 154 0
5.13829 -1.05666 -2.15262 200 153 0
5.19586 -0.976275 -2.17498 200 152 0
5.19884 -0.873737 -2.17997 200 152 0
5.22471 -0.782635 -2.19174 200 151 0
5.19564 -0.683815 -2.18105 200 151 0
5.18938 -0.592834 -2.17945 200 152 0
5.24902 -0.504944 -2.20733 200 150 0
5.23684 -0.409561 -2.2056 200 150 0
5.19043 -0.308942 -2.19053 200 151 0
5.23501 -0.217774 -2.21372 200 149 0
5.2918 -0.125388 -2.24273 200 147 0
5.26732 -0.0305316 -2.23792 200 148 0
5.24415 0.0634917 -2.2342 200 148 0
5.20899 0.152526 -2.22615 200 148 0
5.22184 0.250518 -2.23865 200 148 0
5.19369 0.342586 -2.2344 200 148 0
5.19716 0.432445 -2.25583 200 146 0
5.20415 0.527408 -2.25734 200 146 0
5.21843 0.62765 -2.27231 200 145 0
5.18487 0.718296 -2.26797 200 146 0
5.13167 0.801207 -2.2569 200 146 0
5.12896 0.898776 -2.2233 200 149 0
5.11328 0.991794 -2.27089 200 145 0
5.11052 1.08699 -2.28239 200 145 0
5.07718 1.1718 -2.28288 200 145 0
5.08696 1.27494 -2.29929 200 144 0
5.02268 1.25066 -2.38048 200 138 0
5.04601 1.16026 -2.3769 200 138 0
4.82058 1.0173 -2.25743 200 146 0
4.84539 0.931674 -2.25639 200 146 0
4.88218 0.847867 -2.26145 200 146 0
4.90247 0.760739 -2.25939 200 146 0
4.88643 0.668439 -2.24124 200 147 0
4.84897 0.578532 -2.213 200 149 0
4.89133 0.490691 -2.22385 200 149 0
4.9403 0.40608 -2.23713 200 148 0
4.90442 0.314563 -2.21258 200 149 0
4.95162 0.228419 -2.2261 200 148 0
4.92592 0.142201 -2.21747 200 149 0
4.91618 0.0502365 -2.19651 200 150 0
4.88789 -0.0376738 -2.17796 200 152 0
4.88939 -0.125311 -2.17329 200 152 0
4.92982 -0.210914 -2.18682 200 151 0
4.97224 -0.305812 -2.201 200 150 0
4.98633 -0.388619 -2.2049 200 150 0
4.93868 -0.481505 -2.17938 200 152 0
4.92862 -0.569583 -2.17243 200 152 0
4.99544 -0.66789 -2.19991 200 150 0
4.99223 -0.75837 -2.19712 200 150 0
4.96275 -0.840886 -2.18481 200 151 0
4.87993 -0.916637 -2.1483 200 154 0
4.8691 -1.00473 -2.14406 200 154 0
4.85296 -1.09558 -2.13615 200 154 0
4.87147 -1.19122 -2.14584 200 154 0
4.8059 -1.26245 -2.12128 200 155 0
4.77295 -1.34493 -2.10958 200 156 0
4.36694 -1.31806 -1.93099 200 168 0
4.23723 -1.28597 -1.96603 200 166 0
4.50665 -1.27707 -2.0897 200 158 0
4.57068 -1.20778 -2.11623 200 156 0
4.60219 -1.12885 -2.12824 200 155 0
4.62578 -1.04763 -2.13717 200 154 0
4.66358 -0.972886 -2.15155 200 153 0
4.64172 -0.882257 -2.14081 200 154 0
4.68604 -0.804322 -2.16118 200 153 0
4.70117 -0.720757 -2.16868 200 152 0
4.75494 -0.638446 -2.19572 200 150 0
4.76316 -0.553037 -2.20107 200 150 0
4.71285 -0.465706 -2.17913 200 152 0
4.75313 -0.380079 -2.2013 200 150 0
4.71175 -0.29194 -2.18541 200 151 0
4.65778 -0.208653 -2.16383 200 153 0
4.65353 -0.121131 -2.16659 200 152 0
4.66802 -0.0377227 -2.17832 200 152 0
4.68295 0.0462313 -2.19085 200 151 0
4.64697 0.129379 -2.18014 200 152 0
4.64188 0.208962 -2.18481 200 151 0
4.67415 0.294702 -2.20749 200 150 0
4.67465 0.383131 -2.21515 200 149 0
4.66114 0.462745 -2.2181 200 149 0
4.66689 0.548361 -2.2202 200 149 0
4.63725 0.633628 -2.22478 200 149 0
4.60354 0.709887 -2.22015 200 149 0
4.65628 0.808167 -2.2554 200 147 0
4.61964 0.884005 -2.25086 200 147 0
4.56997 0.964212 -2.23732 200 148 0
4.54162 1.04421 -2.23625 200 148 0
4.52172 1.12599 -2.2399 200 148 0
4.49562 1.12389 -2.32292 200 142 0
4.32297 0.990261 -2.22415 200 149 0
4.37509 0.915358 -2.2398 200 148 0
4.40135 0.838104 -2.24094 200 147 0
4.40874 0.757233 -2.23308 200 148 0
4.40345 0.674691 -2.21944 200 149 0
4.41467 0.598922 -2.21373 200 149 0
4.46542 0.520052 -2.23044 200 148 0
4.4323 0.435334 -2.20481 200 150 0
4.41099 0.353097 -2.18578 200 151 0
4.43805 0.274902 -2.19133 200 151 0
4.45168 0.199184 -2.19044 200 151 0
4.42678 0.114502 -2.17189 200 152 0
4.39432 0.0383522 -2.1499 200 154 0
4.40529 -0.0407542 -2.14997 200 154 0
4.45308 -0.121239 -2.16852 200 152 0
4.43908 -0.204447 -2.15718 200 153 0
4.45046 -0.285077 -2.15897 200 153 0
4.494 -0.368893 -2.1769 200 152 0
4.41134 -0.438102 -2.13506 200 155 0
4.45725 -0.528115 -2.1641 200 153 0
4.52369 -0.617365 -2.18515 200 151 0
4.41901 -0.683807 -2.13374 200 155 0
4.41533 -0.764294 -2.1317 200 155 0
4.43899 -0.84659 -2.14492 200 154 0
4.43663 -0.932288 -2.14322 200 154 0
4.36236 -0.994582 -2.11056 200 156 0
4.42313 -1.09551 -2.14031 200 154 0
4.32259 -1.15273 -2.09431 200 157 0
4.36644 -1.2481 -2.11885 200 156 0
4.3605 -1.33077 -2.11987 200 156 0
4.32885 -1.32857 -2.20209 200 150 0
4.1808 -1.20209 -2.12259 200 155 0
4.20889 -1.12562 -2.13523 200 155 0
4.2042 -1.04808 -2.12793 200 155 0
4.21963 -0.968545 -2.13507 200 155 0
4.23372 -0.8962 -2.13875 200 154 0
4.2194 -0.814659 -2.13037 200 155 0
4.16536 -0.724588 -2.11295 200 156 0
4.22824 -0.656702 -2.13546 200 155 0
4.21237 -0.577157 -2.12793 200 155 0
4.23441 -0.499286 -2.141 200 154 0
4.24103 -0.426812 -2.14512 200 154 0
4.23484 -0.353277 -2.14361 200 154 0
4.21965 -0.275813 -2.13885 200 154 0
4.24819 -0.201098 -2.15685 200 153 0
4.18301 -0.122689 -2.12782 200 155 0
4.18832 -0.0474586 -2.13515 200 155 0
4.12375 0.0311896 -2.10732 200 156 0
4.25308 0.108809 -2.17917 200 152 0
4.16202 0.177857 -2.13904 200 154 0
4.2242 0.260699 -2.1776 200 152 0
4.23683 0.338315 -2.19165 200 151 0
4.27077 0.418742 -2.21743 200 149 0
4.24964 0.49045 -2.21613 200 149 0
4.16063 0.560343 -2.17813 200 152 0
4.17707 0.635815 -2.19777 200 150 0
4.18266 0.717928 -2.20092 200 150 0
4.16388 0.788914 -2.21286 200 149 0
4.17757 0.87015 -2.23219 200 148 0
4.11533 0.939136 -2.20987 200 150 0
4.0975 1.00966 -2.21513 200 149 0
4.04199 0.996334 -2.27637 200 145 0
3.90195 0.88319 -2.18616 200 151 0
3.93374 0.819465 -2.19013 200 151 0
3.9476 0.744102 -2.1875 200 151 0
3.93681 0.668402 -2.17045 200 152 0
4.00091 0.604916 -2.19522 200 151 0
4.02276 0.533891 -2.19723 200 150 0
4.02216 0.463707 -2.18676 200 151 0
4.02786 0.390668 -2.18128 200 151 0
3.9918 0.314429 -2.15387 200 153 0
3.9982 0.23857 -2.15046 200 154 0
4.02677 0.167359 -2.15898 200 153 0
4.04629 0.0950531 -2.16316 200 153 0
4.0275 0.0219405 -2.14746 200 154 0
4.00989 -0.0504502 -2.13302 200 155 0
4.06041 -0.124278 -2.15538 200 153 0
4.05465 -0.193475 -2.14874 200 154 0
4.05098 -0.266442 -2.14359 200 154 0
4.01799 -0.340651 -2.12294 200 155 0
4.01356 -0.409338 -2.11918 200 156 0
4.05124 -0.490579 -2.13676 200 154 0
4.00093 -0.553823 -2.11021 200 156 0
3.98899 -0.629946 -2.11147 200 156 0
4.01762 -0.707474 -2.11782 200 156 0
3.97673 -0.770277 -2.09838 200 157 0
3.94468 -0.841228 -2.08147 200 158 0
3.93317 -0.908967 -2.07891 200 158 0
3.93534 -0.983887 -2.08272 200 158 0
3.05335 -0.824417 -1.61703 200 189 0
3.01568 -0.866673 -1.60299 200 190 0
3.89853 -1.19972 -2.07477 200 159 0
3.87074 -1.19793 -2.15052 200 154 0
3.76628 -1.09595 -2.08584 200 158 0
3.74978 -1.01887 -2.07275 200 159 0
3.77388 -0.949686 -2.08438 200 158 0
3.77118 -0.878792 -2.08864 200 158 0
3.82508 -0.818182 -2.10745 200 156 0
3.825 -0.750415 -2.10441 200 157 0
3.78338 -0.672045 -2.08055 200 158 0
3.87379 -0.612907 -2.13095 200 155 0
3.84575 -0.541555 -2.11468 200 156 0
3.83293 -0.465999 -2.10923 200 156 0
3.83742 -0.400337 -2.11226 200 156 0
3.84209 -0.334755 -2.11622 200 156 0
3.84424 -0.26161 -2.12053 200 156 0
3.84081 -0.188223 -2.12209 200 155 0
3.84142 -0.122573 -2.1258 200 155 0
3.8353 -0.0531384 -2.1267 200 155 0
3.8161 0.0197326 -2.12087 200 155 0
3.85572 0.0890434 -2.16589 200 152 0
3.8314 0.154664 -2.14092 200 154 0
3.82631 0.223844 -2.14472 200 154 0
3.8341 0.294017 -2.15635 200 153 0
3.81034 0.365468 -2.15019 200 154 0
3.79472 0.433496 -2.14968 200 154 0
3.78225 0.501697 -2.15151 200 153 0
3.79831 0.574121 -2.17022 200 152 0
3.79111 0.639817 -2.17744 200 152 0
3.79534 0.715469 -2.18963 200 151 0
3.75735 0.77925 -2.17916 200 152 0
3.73737 0.842432 -2.18111 200 151 0
3.71877 0.909613 -2.18309 200 151 0
3.70266 0.906174 -2.26054 200 146 0
3.56079 0.799223 -2.16274 200 153 0
3.60098 0.739635 -2.17502 200 152 0
3.65616 0.681862 -2.19673 200 150 0
3.61663 0.606628 -2.16215 200 153 0
3.62817 0.544704 -2.15792 200 153 0
3.64378 0.475752 -2.15858 200 153 0
3.64952 0.409241 -2.15303 200 153 0
3.66174 0.343439 -2.1519 200 153 0
3.66929 0.280855 -2.14811 200 154 0
3.64644 0.20898 -2.12815 200 155 0
3.64506 0.142705 -2.12089 200 155 0
3.65204 0.0767918 -2.11907 200 156 0
3.67145 0.0107564 -2.12503 200 155 0
3.67319 -0.0556621 -2.12132 200 155 0
3.671 -0.122004 -2.11594 200 156 0
3.65977 -0.187837 -2.10594 200 156 0
3.64479 -0.253079 -2.09439 200 157 0
3.64192 -0.318957 -2.09039 200 158 0
3.65146 -0.386204 -2.0941 200 157 0
3.64627 -0.452177 -2.08993 200 158 0
3.69823 -0.522642 -2.12001 200 156 0
3.64542 -0.585872 -2.08881 200 158 0
3.63298 -0.651027 -2.08224 200 158 0
3.61497 -0.715 -2.07307 200 159 0
3.59459 -0.778215 -2.06311 200 159 0
3.62139 -0.852239 -2.08083 200 158 0
3.59421 -0.914072 -2.06814 200 159 0
3.61768 -0.989289 -2.08521 200 158 0
3.602 -1.05457 -2.08035 200 158 0
3.48159 -1.08722 -2.01545 200 163 0
3.51887 -1.1054 -2.12267 200 155 0
3.43931 -1.01244 -2.08794 200 158 0
3.45152 -0.946378 -2.07432 200 159 0
3.40928 -0.869414 -2.04513 200 161 0
3.44684 -0.81704 -2.063 200 159 0
3.44426 -0.751418 -2.05895 200 160 0
3.45852 -0.686102 -2.06676 200 159 0
3.49776 -0.636035 -2.08655 200 158 0
3.42956 -0.556554 -2.04622 200 160 0
3.50601 -0.500714 -2.09257 200 157 0
3.52946 -0.442995 -2.10613 200 156 0
3.49884 -0.371565 -2.08954 200 158 0
3.54286 -0.315387 -2.1168 200 156 0
3.52193 -0.245842 -2.10693 200 156 0
3.51983 -0.18552 -2.10804 200 156 0
3.50127 -0.117436 -2.1005 200 157 0
3.53414 -0.0582378 -2.12399 200 155 0
3.50514 0.00940749 -2.11109 200 156 0
3.48876 0.0726061 -2.10623 200 156 0
3.51329 0.133182 -2.12691 200 155 0
3.48097 0.198955 -2.1133 200 156 0
3.50908 0.264568 -2.13721 200 154 0
3.46468 0.324628 -2.11754 200 156 0
3.45397 0.387091 -2.11896 200 156 0
3.44583 0.44979 -2.12254 200 155 0
3.47134 0.517546 -2.14753 200 154 0
3.43687 0.577142 -2.1526 200 153 0
3.46374 0.642409 -2.16443 200 153 0
3.43317 0.701723 -2.15659 200 153 0
3.39941 0.759682 -2.14722 200 154 0
3.37128 0.822016 -2.14045 200 154 0
3.34053 0.807578 -2.20555 200 150 0
3.35625 0.746691 -2.20314 200 150 0
3.29744 0.674358 -2.15151 200 153 0
3.29813 0.608227 -2.14197 200 154 0
3.29177 0.552536 -2.12546 200 155 0
3.30294 0.485222 -2.12475 200 155 0
3.32378 0.426523 -2.1289 200 155 0
3.3454 0.367462 -2.13408 200 155 0
